ncols         416
nrows         28
xllcorner     108.82875
yllcorner     12.7654166666
cellsize      0.00083333333333333
nodata_value  -9999
465.999 480.993 495.992 495.002 496.002 496.998 503.994 504.997 501.999 507.993 507.998 500.002 476.011 452.014 431.012 419.007 410.005 413.997 415.996 412.996 403 388.004 380.003 384.001 406.991 443.98 461.988 454.003 436.006 412.009 406.999 395.003 395.997 396.996 392 384.002 384.998 388.996 408.988 427.985 439.988 454.987 468.987 486.985 495.988 503.991 491.001 484.998 486.995 501.988 517.988 538.987 562.988 590.987 606.99 611.992 625.986 658.976 690.978 701.99 691 663.009 649.005 650.001 639.006 620.008 588.016 555.016 533.009 483.024 432.026 415.008 416.993 409.995 402 432.985 467.974 470.985 471.988 459.998 443.001 428.002 412.003 405.998 409.993 424.987 429.991 426.994 420.994 421.987 409.995 391.999 369.003 349.002 331.002 315.003 304.002 287.007 267.01 262.004 261.002 263 264 263 260.001 256.002 256.001 256.005 259.003 254.005 251.003 253 260.997 276.993 276.001 272.002 269.003 273.998 274 273.001 272 269.001 264.002 254.003 239.004 225.005 222.001 223.002 227.999 232.998 229.002 229.002 229.005 238.002 248 255 248.006 243.006 236.006 239 256.995 260.008 258.011 255.012 254.011 257.01 255.007 256.008 262.009 267.011 280.006 291.002 296.996 273.014 245.016 237.006 246.999 238.005 234.002 229.001 223.001 223.001 225 222.002 229.997 248.992 269.992 282.991 271.005 263.002 244.008 230.007 234 235.001 235.001 227.004 227.002 233 236.001 238.001 246.998 259.994 266.995 271.998 265.006 257.006 262.999 255.009 271.996 299.99 326.993 346.995 368.994 396.991 418.994 448.992 482.991 530.983 569.986 570.007 548.021 526.019 502.019 495.009 502 520.99 542.986 574.98 603.981 634.982 678.977 718.98 725.999 737.999 761.996 780.999 801.996 820.997 846.992 868.993 864.005 813.022 760.022 717.015 673.012 633.01 587.018 550.021 541.015 529.02 517.019 501.018 487.016 474.013 472.006 464.009 450.012 440.009 432.007 423.012 431.009 429.012 430.002 408.008 374.018 362.011 358.005 354.004 352.003 350.003 353.998 373.99 400.986 433.981 466.982 503.979 538.979 592.968 639.971 682.973 666.003 630.015 619.999 631.989 655.987 674.992 689.997 725.986 772.979 788.995 797.996 823.984 858.975 857.989 845.997 848.991 870.977 881.987 932.973 990.97 1019.987 965.028 940.017 968.992 1025.975 1068.979 1085.994 1075.015 1074.009 1106.99 1123 1120.006 1090.014 1047.022 1016.025 1021.008 1022 975.02 927.021 884.022 879.011 901.996 946.979 992.978 1027.983 1029.006 1008.021 1007.013 1019.006 1031.004 1018.012 1017.004 1032.993 1047.992 1081.984 1097.993 1095.002 1061.013 1013.018 957.025 919.017 896.01 878.009 865.007 860.005 874.993 889.993 901.996 916.998 931.005 945.007 959.005 979.998 1004.991 1025.99 1037.992 1053.992 1070.992 1096.987 1114.989 1133.989 1161.985 1186.983 1192.991 1185.999 1174.001 1168.997 1162.999 1149.005 1135.007 1118.008 1116.004 1124.001 1145.992 1164.99 1188.985 1203.991 1212.995 1207.003 1206.001 1222.991 1237.994 1226.007 1201.016 1174.02 1181.003 1196.004 1201.009 1208.005 1211.003 1183.014 1151.017 1137.012 1137.007 1132.012 1143.004 1136.01 1110.019 1098.011 1107.998 1138.986 1165.991 1183.996 1159.016 1128.018 1114.011 1108.005 1122.997 1141.99 1131.997 1101.006 1062.011 1015.019 984.02 971.012 953.012 930.011 895.017 880.009 873.005 867.004 854.006 830.01 793.016 752.019 716.016 681.014 657.009 617.019 565.026 523.025 494.02 459.018 455.996 484.979 523.973
463.001 480.991 490.995 499.996 503.997 491.006 491.998 496.995 492.002 490.999 498.993 495.999 479.006 466.003 443.01 425.011 413.008 411.002 404.004 394.004 387.002 379.003 378.001 393.992 411.989 429.985 444.987 451.991 430.009 407.011 395.004 388.002 385 382.999 381.999 379 378 379.998 395.99 403.993 414.989 429.986 442.988 458.986 465.99 482.987 473.998 468.997 471.993 482.989 499.99 522.987 555.979 585.981 596.987 589.993 594.989 620.981 661.973 681.985 672.001 649.007 644 656.992 645.003 618.011 595.008 560.016 531.013 491.021 448.025 418.017 393.011 381.002 388.992 425.976 427.988 418.993 426.986 431.986 419.994 410.994 398.001 389.001 390.994 400.988 403.99 399.995 386.999 374.998 370.994 359.995 343.997 323 306.999 298.999 293.999 285.002 273.004 268.004 267.001 267 264.001 261.001 257.002 256 261.001 273.997 274.003 265.008 257.008 255.005 262.999 276.994 277 273.002 275 276 275.001 274.001 270.999 266.998 261.997 247.002 231.005 222.004 222.005 231.998 231.003 232.004 231.004 235.002 248.998 258.997 265.998 267 261.003 258.002 247.004 245.002 268.991 294.991 296.999 295.001 296.002 299.003 280.015 287.007 306 317.998 323.996 315.999 293.005 285.999 260.011 248.005 257.991 244.004 234.003 225.004 218.004 227.996 229.999 223.003 232.995 250.99 272.985 270.996 268.997 259.003 242.008 232.004 239.996 241.998 237.001 230.002 234.997 241.997 243 244.999 254.995 256.997 260.994 270.992 275.997 265.008 270.999 276.001 285 309.992 345.986 362.995 381.996 407.993 432.995 467.992 506.991 545.99 580.992 596.002 590.012 562.022 535.023 517.02 512.013 515.005 525.996 550.987 580.983 616.979 665.973 708.976 732.987 754.99 787.983 808.987 821.991 840.986 860.987 879.989 874.999 812.03 757.026 703.02 647.022 604.022 578.02 570.02 583.011 587.014 570.022 543.021 524.014 502.015 490.011 484.008 471.012 459.014 446.015 453.01 477.999 470.007 441.013 400.025 385.016 383.008 370.012 364.009 360.006 360.002 354.003 367.993 392.987 417.988 451.983 486.979 515.982 560.97 605.969 652.965 650.989 626.003 598.009 608.995 644.987 676.99 704.992 730.99 772.976 797.982 796.997 807.991 821.984 813.996 814.994 817.99 818.994 850.984 912.97 972.969 1018.976 979.023 965.019 988.002 1026.989 1061.993 1092.994 1113 1106.014 1124.994 1150.99 1137.01 1094.028 1059.03 1060.013 1060.003 1025.015 974.022 926.022 895.017 913.997 925.002 941.998 985.984 1021.99 1051.996 1055.013 1056.015 1061.009 1066.003 1043.014 1030.009 1031.004 1042.996 1077.979 1098.984 1095.996 1055.017 1002.025 958.021 919.018 896.011 881.007 870.007 869.007 873.004 888.994 905.993 932.991 974.988 994.004 1001.011 1009.009 1013.011 1021.007 1026.007 1049.998 1066.998 1088.991 1100.996 1122.988 1149.982 1163.987 1168.993 1169.996 1157.004 1150.001 1148.998 1146 1140 1121.008 1126.001 1141 1152.003 1158.005 1170.998 1192.99 1206.993 1208.998 1207.999 1217.994 1238.989 1233.004 1221.012 1204.014 1203.006 1236.99 1244.004 1239.002 1228.998 1190.015 1163.014 1158.009 1164.009 1168.01 1176.003 1162.013 1141.016 1121.017 1117.013 1137.996 1175.986 1199.989 1180.009 1145.019 1133.009 1118.011 1136.993 1135.994 1103.007 1074.005 1038.014 1010.019 1010.007 994.009 969.01 935.017 901.02 891.008 879.005 872.999 856.004 827.011 793.014 755.016 718.015 676.016 653.007 622.015 577.024 550.019 522.016 468.031 436.021 452.989 483.974
461.001 477.992 488.995 499.994 499.999 494.001 485.002 486.995 489.997 486.001 485.999 488.997 472.008 455.008 443.004 437.002 425.007 416.007 409.008 391.014 382.008 379.003 379.999 389.993 399.991 402.993 419.986 430.99 428.001 409.008 391.009 384.004 379.004 377.001 376 374.999 374.998 373.999 385.992 388.995 390.996 399.992 417.986 432.987 439.991 460.985 450.998 447.992 449.991 458.989 490.982 512.986 530.987 561.978 566.989 552.999 562.988 591.98 627.977 656.982 660.996 638.01 635.999 647.991 638 614.008 589.011 562.011 534.013 506.017 471.022 434.02 393.021 369.01 370.995 395.978 386.993 376.994 384.987 386.989 377.994 373.992 378.991 377.998 372.999 369.996 369.992 373.99 362.999 346.002 339.995 324 305.002 289.002 277.003 279.995 280.996 275.999 267.003 273.997 270.002 268.001 264.001 258.002 257 256.002 271.994 284.995 285 281.003 275.006 271.005 271.003 276.998 276 275.001 276.999 278.999 276.001 275 264.005 253.003 242.999 229.003 222.005 222.007 240.994 240.002 242.001 248.999 243.008 250 262.995 265.998 269.997 267 263.001 259 243.007 249.998 273.99 301.984 296.996 295.991 305.988 314.99 304.001 324.986 338.99 329.998 318.995 299.003 275.006 270.995 259.998 247 239.999 235.999 230.001 224.002 221.003 228.999 231.001 223.004 231.997 243.995 251.997 252.002 255 253.002 243.006 231.006 238.998 237.003 233.003 226.004 232.997 240.995 243.997 244.998 251.996 248.001 243.002 256.991 272.99 275.997 277.998 286.996 300.993 319.992 351.983 371.989 398.987 425.989 455.993 496.99 538.991 572.995 607.99 626.998 624.009 600.02 577.021 564.015 554.015 539.017 528.011 543.992 564.99 596.982 643.974 689.973 721.983 753.983 778.984 795.986 807.988 819.99 842.986 868.985 864 821.014 764.021 689.033 637.031 616.023 612.02 632.008 648.007 648.01 624.018 580.026 547.024 521.022 512.017 504.016 497.016 492.011 482.012 502.002 516.003 485.019 442.029 426.018 420.009 412.008 395.011 388.004 375.007 366.004 356.005 363 384.992 412.987 442.985 465.987 496.981 521.979 560.969 596.967 603.979 595.994 584.007 608.993 655.98 691.984 720.987 735.995 751.99 768.988 782.99 791.991 783.997 783.99 794.984 783.998 795.993 843.977 899.971 954.972 1003.976 1002.006 1014.005 1034.002 1049.006 1091.99 1119.998 1145.993 1149 1135.004 1154.988 1153.006 1129.021 1116.016 1110.006 1070.017 1025.017 974.022 931.021 909.013 934.989 950.996 963 999.988 1041.988 1086.986 1108 1113.009 1103.011 1084.012 1059.015 1044.012 1049.003 1047.007 1056 1070.994 1075.998 1052.007 1009.016 963.02 923.019 898.015 883.011 880.008 893.003 896.008 894.005 908.995 941.985 1000.971 1039.982 1055.998 1058.011 1063.009 1060.012 1060.012 1083.996 1087.007 1093.005 1106 1113.001 1126.993 1135.996 1149.993 1157.994 1152.004 1144.004 1141.001 1140 1130.003 1120.002 1138.99 1166.986 1182.994 1187.998 1185.004 1191 1204.992 1204.993 1203.994 1210.994 1229.989 1239.996 1246.993 1228.005 1226.002 1256.987 1269.995 1238.015 1206.013 1184.011 1172.013 1184.005 1206.999 1211.007 1199.013 1188.012 1168.015 1153.017 1159.009 1159.011 1185.99 1195.995 1181.005 1160.011 1147.007 1137.005 1140.991 1111.004 1074.011 1046.014 1033.014 1037.007 1036.007 1001.021 966.023 943.017 920.018 905.013 878.015 859.009 842.005 821.007 790.013 754.014 713.017 667.02 641.01 627.001 594.009 576.001 537.014 498.021 463.025 439.02 438
456.997 473.991 487.993 496.995 494.999 489.001 479.004 473.002 484.992 482.999 481 482.998 473.003 458.006 440.007 435.001 432.001 428.003 428 416.006 399.011 385.01 377.004 379.998 381.998 382.999 395.991 410.99 424.989 408.005 397.002 387.003 385 379.002 375.002 370.002 369.001 369.001 374.996 375.998 377.997 382.994 395.989 406.988 417.989 438.983 426.999 411.001 416.991 432.988 473.975 496.982 509.988 530.982 533.991 525.997 531.99 562.978 599.976 634.978 651.989 637.004 629.002 632.994 621.999 606.001 588.002 558.009 539.006 525.005 495.012 448.022 405.019 369.016 357.004 353.996 345.998 338.997 348.986 347.992 338.996 337.993 351.987 366.99 360.003 349.004 339.001 342.991 339.994 325.002 309.002 297.002 282.004 270.004 268.999 265 265.997 264.998 264.999 273.994 270 269 263.003 257.003 256.001 261.996 274.992 285.993 286 287 287 284.001 282.001 278.003 276.001 276.999 276 277.998 275.999 272.999 264.003 245.005 222.01 219.003 230.001 249.997 249.003 246.004 248.998 257.997 261.999 260.002 263.997 263.999 263.998 263 260.001 254.002 244.006 252.997 274.989 287.988 273.999 261 275.987 289.987 289.994 307.981 323.983 306 283.005 278.997 258.006 247.001 233.003 224.004 223 225.999 222.003 220.001 225.999 237.001 238.004 225.007 233.995 242.994 254.993 258.997 259.001 259.002 248.007 233.008 242.996 244 239.003 231.004 233.001 234.999 236.998 239.998 246.995 244.001 241.002 245.997 262.991 269.996 274.996 285.992 298.992 319.988 339.989 364.987 393.986 427.986 477.983 525.986 573.985 609.991 630 651.999 655.008 638.015 617.017 599.017 595.011 579.017 551.022 540.01 559.99 582.988 620.979 661.975 709.972 743.979 760.988 768.992 781.992 800.992 825.989 853.986 853.997 803.021 748.027 691.035 667.027 669.017 680.011 696.007 702.011 686.017 654.023 606.035 582.026 563.025 562.017 550.022 546.012 526.019 513.018 542.997 550.005 507.031 482.027 469.016 446.019 431.012 410.011 392.008 379.008 368.005 357.006 372.992 392.988 410.989 434.985 452.991 475.984 482.99 505.98 528.979 536.99 558.988 589.985 624.981 657.979 688.978 720.978 742.983 740.996 751.989 768.984 772.989 758 746.998 752.991 756.998 790.984 834.978 881.974 938.968 992.966 1021.985 1053.99 1075.999 1097.001 1123.993 1157.98 1160.99 1151.994 1128.003 1141.991 1171.977 1170.989 1155.998 1122.01 1069.021 1016.022 973.019 940.016 922.014 934.997 963.986 983.993 1015.988 1064.979 1109.982 1144.992 1154.005 1127.019 1098.018 1074.015 1064.012 1069.005 1070.01 1069.007 1072.999 1075.996 1037.014 998.019 961.02 929.019 914.009 899.011 905.007 927 932.005 910.017 913.003 940.987 988.975 1036.973 1074.979 1102.988 1105.004 1100.01 1107.004 1110.005 1117 1121 1128.997 1127.002 1125.001 1133.996 1145.993 1146.996 1155.992 1147.002 1141.001 1139 1124.005 1112.004 1131.991 1159.987 1184.982 1189.989 1194.991 1202.99 1197.995 1178.003 1178.996 1200.987 1218.992 1240.987 1232.995 1215.001 1228.986 1258.976 1273.986 1242.012 1203.019 1189.011 1200.002 1222.995 1240.996 1243.004 1230.014 1215.015 1190.019 1192.006 1202.003 1201.01 1194.011 1194.001 1177.009 1167.009 1154.01 1140.006 1112.009 1078.013 1053.016 1052.011 1065.004 1072.003 1061.007 1022.022 995.019 970.018 951.015 929.013 892.019 861.016 832.014 812.008 787.011 748.022 708.024 667.024 637.017 608.01 572.013 548.007 526.006 513.001 500.999 475.009 438.016
450 466.99 483.99 492.994 489.001 483.001 478 470 474.994 476.996 475.998 476.997 467.003 455.003 436.008 432.001 431.999 432.998 429.001 420.005 413.005 399.008 380.011 378.003 379 379.999 382.997 397.99 407.99 399.999 387.003 383 382.999 378.002 375.001 369.003 370 371 370 369 370.999 369.001 373.995 379.993 392.989 408.984 403.995 387.005 392.995 413.986 444.979 464.984 484.985 498.99 505.992 501.996 504.992 531.979 568.974 609.974 636.982 628.998 623.997 617.996 599.001 584.997 567 542.005 529 520.997 492.008 453.015 406.02 371.014 353.007 334.007 324.003 316.002 311.999 313.994 307.997 310.992 326.987 352.984 360.996 346.009 328.009 316.004 310.999 305.998 291.004 283 274.002 267.001 263.001 259.001 258.001 256.001 262.996 265.998 265 265.997 263 257.003 258 257.001 265.995 276.995 285.997 288.999 288 284.002 281.002 280.999 277 275 274.999 274.998 268.999 263.997 258.998 233.01 223.005 226.002 251.99 270.992 260.009 256.005 248.005 259.992 263.997 265 261.001 260.003 258.003 262.998 258.002 250.004 251.997 255.994 267.99 264.996 248.004 241.001 249.995 264.995 265.998 265.996 284.989 277.004 265.007 259.001 247.004 234.006 221.006 224.998 223.003 227 226.003 221.005 231.996 260.987 255.005 232.013 228.002 235.995 249.992 255.995 263.995 265.998 255.005 237.01 243.995 244.999 241.002 234.005 239.999 233.005 232.001 236.997 239.998 240.999 242 241.001 257.991 265.995 267 272.996 288.991 309.987 330.987 356.986 388.983 431.98 494.972 551.974 596.978 635.98 661.988 684.992 690.003 668.02 647.019 633.015 629.009 617.009 587.016 559.016 557.005 575.992 602.986 634.983 682.972 719.975 741.981 750.991 773.987 803.986 823.99 846.991 844.003 800.026 759.026 729.026 729.014 737.009 741.009 751.007 754.008 725.022 689.028 659.029 643.023 626.025 627.014 614.02 584.025 565.018 561.015 580.006 580.011 552.026 543.017 509.028 480.025 450.02 416.018 394.011 386.003 369.008 360.005 370.994 381.995 398.99 418.987 446.98 451.991 456.992 466.991 486.992 512.989 550.977 582.977 610.979 630.986 656.982 688.978 715.982 723.993 729.99 737.986 736.991 731.992 721.002 728.001 754.994 784.995 824.987 859.988 911.977 953.983 1012.974 1070.976 1109.985 1134.985 1140.986 1139.988 1126.992 1112.991 1098.997 1129.974 1133.982 1126.987 1122.987 1101.997 1059.012 1011.021 973.019 948.018 945.005 944.002 959.995 988.991 1021.987 1066.98 1116.976 1173.977 1188.997 1153.021 1117.02 1093.018 1092.013 1098.009 1107.999 1096.005 1076.01 1067.006 1027.023 1004.018 977.019 947.017 923.013 917.006 939.996 963.996 959.007 939.013 928.01 937.997 971.984 1013.978 1058.974 1102.971 1124.982 1127.993 1133.993 1134 1128.003 1128.998 1129.999 1132.998 1125.003 1134.991 1138.993 1134.997 1141.989 1139.995 1134.001 1136.998 1120.005 1106.005 1129.988 1157.983 1156.997 1156.998 1169.989 1175.99 1168.996 1157.001 1166.993 1186.991 1218.986 1227.993 1202.008 1189.002 1197.99 1215.984 1244.979 1236.002 1209.018 1208.01 1225.999 1242.997 1256.998 1261.003 1261.009 1247.013 1221.017 1217.008 1228.999 1239 1225.014 1199.018 1183.01 1183.999 1171.004 1140.012 1099.018 1070.018 1073.007 1091 1100.999 1094.003 1071.012 1043.018 1023.015 999.016 976.014 942.018 904.021 869.017 836.014 808.015 786.015 769.011 735.017 692.021 651.017 599.025 563.025 536.021 512.015 494.009 477.006 465 439.007
445.006 457.993 473.989 484.991 484.997 475.003 468 456.004 460.995 465.995 465.998 468.996 461.002 448.005 436.005 431.002 429.001 427.001 426.999 424.001 420.001 407.007 389.013 385.006 381.004 377.002 377.999 383.996 384.997 383.998 378.002 377 380.996 379 374.003 372.001 371.999 371 368.001 368.999 371 369.002 365.003 364.999 370.996 375.994 375.996 377.996 383.994 395.991 414.986 438.984 461.986 484.986 486.997 480.999 477.996 497.983 532.977 576.972 612.975 608.994 602.995 593.999 572.005 552.002 538 521.001 508.999 496 474.004 447.007 406.016 366.017 348.004 329.007 320.004 309.005 302.002 294.002 285.004 286.998 304.989 333.983 357.986 355.001 332.011 311.011 298.006 290.004 283.004 270.005 267.999 261.003 260 257.002 258.999 258.001 260.999 261.999 261.999 258.002 257.001 258 260.998 261 262.001 275.995 289.995 289.001 287.001 284.001 281.999 278 272.002 273 271.001 266.999 256.002 243.005 242.997 226.005 225 237.99 258.986 272.99 275 267.01 255.01 249.006 257.996 265.996 259.002 267.999 265.007 264 258.002 253.002 243.006 238.003 248.996 245.002 234.005 233 243.993 270.985 261.005 249.005 273.987 277.996 270.002 252.007 241.005 234.003 224.004 224.001 230.001 235 236.001 233.005 235.001 259.984 264.994 242.013 229.007 230.998 241.993 247.998 256.996 260.997 257.003 246.008 238.003 240.997 242 241.001 244.998 241.003 234.005 234.002 238.999 237.002 243.997 244 252.995 261.994 266.994 267.998 279.991 295.989 315.987 346.982 376.986 427.976 492.965 546.97 587.975 624.978 658.979 691.982 710.994 707.009 686.018 667.015 655.007 632.011 598.018 573.018 572.01 577.006 594.996 621.987 655.982 684.981 704.987 729.987 760.985 799.981 820.991 850.986 852.004 825.019 791.026 780.016 781.009 783.009 781.01 793.004 791.009 762.022 735.024 718.018 703.016 692.016 682.017 669.018 629.03 604.022 610.005 633.998 622.015 606.013 593.005 561.012 528.013 476.025 429.023 398.016 385.007 371.008 363.007 367 379.994 389.995 401.993 415.992 426.993 433.995 447.992 487.98 512.984 526.987 549.982 578.981 610.982 631.991 659.988 692.982 709.987 699.996 697.992 700.991 695 711.995 742.992 776.991 815.988 840.996 871.994 910.99 957.986 1012.982 1075.977 1118.974 1118.988 1098.996 1093.991 1074.995 1056.999 1064.99 1082.98 1071.99 1063.992 1066.986 1053.992 1033.999 1011.006 984.012 976.006 961.012 951.011 968.997 1003.988 1025.998 1064.99 1108.983 1181.964 1201.994 1172.02 1134.025 1121.016 1138.999 1141.999 1120.008 1095.014 1082.01 1074.009 1049.019 1033.012 1004.013 962.02 932.016 929.005 963.987 989.992 979.01 955.016 947.007 942.004 965.991 1000.985 1034.98 1064.979 1092.979 1105.987 1116.994 1135.993 1128.006 1123.003 1125.997 1130.995 1122.002 1116.999 1117.994 1117.996 1112.997 1115.995 1127.996 1134.994 1111.006 1100.002 1123.987 1140.992 1144.998 1150.997 1149.996 1148.995 1140.999 1141.997 1157.991 1186.986 1219.979 1217.995 1191.007 1174.004 1174.996 1183.993 1212.984 1227.993 1233.006 1244.004 1251.005 1260.002 1273.998 1279.003 1296 1273.018 1242.021 1242.006 1244.008 1257.002 1255.006 1226.02 1196.021 1182.01 1164.004 1133.01 1100.02 1092.013 1106.004 1122.998 1113.006 1095.008 1079.011 1065.011 1048.01 1020.014 991.012 956.014 921.013 875.02 833.02 818.009 808.005 783.009 743.015 700.015 646.025 609.026 600.016 570.023 531.026 499.021 471.015 444.013 423.009
449.007 453.995 457.996 467.994 472.995 469 456.006 451.001 450.999 456.996 459.996 457.998 454 446.002 436.004 430.003 429.001 429 424.003 422.001 418.001 412.003 408.004 401.005 388.007 378.004 377 376.999 376 375 374.999 374 373.999 374.999 376.998 374.002 370.002 369 367.001 368 372.997 374.999 369.004 363.003 364 361.001 360 365.996 369.995 382.991 393.992 416.988 444.983 468.983 476.991 466 457.999 465.991 503.977 543.978 576.981 580.992 574.998 576.997 554.008 526.01 514.003 495.006 485.001 473.001 454.004 430.008 398.012 366.013 335.013 323.004 318.999 310.003 299.005 290.005 287.003 284.004 292.995 316.985 343.983 352.992 337.005 317.009 298.008 292.002 287.002 269.009 262.003 260.001 259.001 259 260 261.999 261.002 258.004 260 258.002 258 261 260.004 261.003 266.001 281.994 292.995 290.001 288.001 283.003 274.004 270.001 269 273.998 270.004 257.011 247.01 240.009 233.009 218.01 221.999 223.001 238.989 256.985 279.982 292.992 275.012 262.008 256.004 263.995 255.003 277.986 284.994 264.01 257.003 254.001 250.003 241.007 251.995 245.002 235.004 231.001 234.997 256.987 264.994 250.006 266.986 269.994 264.001 249.005 240.004 233.002 221.007 227 241.994 244.002 243.003 247.996 243.999 241.002 251.996 253.999 235.009 228.004 234.997 249.992 255.995 255.999 260.997 257.003 235.012 236 243.998 244.003 245 244.001 243.001 243.001 243.001 243.002 243.002 245 247.998 252.998 253.003 261 266.001 279.993 300.986 327.985 374.974 421.972 467.975 523.972 561.982 603.98 636.985 676.982 718.982 733.998 719.012 691.016 662.013 635.016 609.021 602.013 608.004 608.006 608.005 617 641.991 658.994 686.987 720.987 755.987 792.985 822.985 848.987 867.994 854.015 832.02 822.013 818.013 819.012 817.015 828.007 822.013 799.018 780.012 758.014 739.015 735.008 731.008 718.011 678.024 645.027 641.017 666.997 658.005 630.008 592.011 552.01 522.006 483.013 439.018 406.018 389.014 377.015 375.009 374.006 379.003 387.001 396 407.999 417.999 426.998 440.994 479.978 494.989 501.995 519.992 554.986 596.982 632.981 658.984 680.983 687.989 669.002 663.999 672.995 684.996 719.983 764.977 798.983 835.982 867.986 899.988 937.984 980.979 1035.971 1092.966 1091.989 1071.998 1051.999 1049.989 1026.001 1022.996 1037.983 1034.99 1013.998 1020.985 1016.989 1002.994 997.993 995.994 984.004 987.002 981.014 978.014 989.004 1016.991 1054.987 1090.992 1115.999 1167.982 1210.984 1199.012 1165.025 1160.012 1165.001 1144.01 1114.018 1105.01 1100.007 1096.004 1081.01 1052.013 1007.021 970.019 945.016 942.008 971.988 1003.988 999.006 978.013 962.009 948.009 971.99 1000.987 1015.995 1034.993 1058.989 1078.993 1110.99 1138.99 1136.005 1127.008 1121.006 1120.002 1116 1104.003 1095.001 1100.993 1093.001 1100.995 1130.984 1124.998 1095.009 1089.001 1115.988 1137.993 1142.998 1147.996 1132.004 1126.999 1125 1130.995 1151.987 1181.981 1194.989 1196.995 1171.008 1160.003 1160.999 1172.994 1199.991 1227.993 1264.988 1277 1280.008 1282.008 1290.002 1300 1322.994 1303.013 1269.02 1265.006 1276.999 1285 1275.008 1254.011 1227.014 1196.015 1151.022 1119.021 1121.007 1129.006 1144.997 1142.002 1121.01 1097.015 1095.002 1083.005 1060.008 1026.013 989.015 952.014 913.014 874.015 838.018 829.003 809.006 775.011 735.015 686.026 651.024 648.012 648.01 608.027 566.029 525.025 483.023 447.019 421.015
458.003 445.006 447.997 460.991 461.996 461.998 457.002 448.004 446.999 452.995 448.001 446.999 447.997 442.002 436.003 432.003 433 430.003 428.004 421.004 415.003 413.001 415.997 407.003 392.005 375.008 376.999 375 373.001 372 371.001 371.999 369.002 371.998 373.999 375 371.003 369.002 367.001 368.999 370.998 372.999 372.999 366.003 366.998 361 358 359.998 356.001 368.993 380.993 407.984 427.984 443.985 454.987 445.998 439.998 444.992 477.979 524.973 560.98 558.998 555.998 566.99 547.006 518.013 504.007 485.011 473.006 456.008 437.01 419.01 392.012 361.015 333.014 320.005 307.005 304.999 298.002 296.004 295.003 294 287.001 300.989 322.985 338.987 329.999 317.003 297.008 290.002 286.001 272.006 262.005 261.001 261 259.001 260.999 262.999 267 267.005 262.007 262.003 258.006 264.998 272 274.003 278.002 286.998 291.998 289.002 289 285.001 274.005 267.003 267 272.997 276.998 277.999 269.006 264.005 254.009 233.016 226.009 227.003 224.003 230.996 250.987 283.98 288.995 271.013 260.009 259.002 252.005 260.996 273.989 265.999 255.005 253.999 252.997 250.999 249.998 241.003 234.004 227.004 230.999 244.993 256.991 248.002 243 252.992 256.995 245.005 239.002 228.005 227.002 237.997 244.001 253.998 252 240.003 235.002 241.997 253.993 253 239.008 232.004 236.998 243.997 247.998 250.999 255.998 262.994 244.01 237.003 249.994 254.001 247.005 246 245 247.998 248 249.999 249.002 247.003 246.005 252.005 264.001 273.999 279 275.006 283.997 314.984 353.981 394.982 447.977 508.974 554.982 597.984 634.987 673.985 719.98 750.983 741.002 707.014 665.023 651.012 645.01 640.012 635.011 631.008 627.008 633.005 647.999 662.998 684.995 726.981 765.985 795.991 816.992 842.988 877.983 887 871.016 857.017 860.01 868.009 872.011 874.011 861.015 831.016 795.019 775.016 766.011 757.011 754.006 738.009 703.026 693.022 701.01 698.01 661.02 613.023 569.021 525.022 494.016 466.011 435.017 421.014 416.013 416.011 405.014 397.012 397.007 403.004 411.001 424.995 431.001 434.007 440.008 461.992 476.99 492.994 518.993 558.982 596.978 621.98 639.982 652.984 655.988 645.999 652.995 668.992 688.993 714.992 751.986 791.984 828.985 865.982 905.978 941.976 973.979 1017.976 1057.972 1047.992 1029.996 1013.998 1005.993 990.002 1002.985 997.992 992.992 970.001 975.985 969.99 954.998 961.992 968.996 979 999 1023 1028.01 1023.014 1029.01 1068.993 1121.982 1152.996 1184.998 1220.993 1226.003 1204.019 1198.009 1177.015 1149.021 1133.015 1130.008 1118.009 1106.009 1093.009 1054.021 1011.027 980.021 965.014 968.003 976.997 1011.981 1012.997 994.011 970.016 960.011 974.002 997.995 1020.993 1037.995 1057.996 1085.991 1125.983 1148.991 1149.001 1141.009 1135.008 1125.008 1110.008 1096.005 1084.004 1085.996 1081.999 1093.991 1119.985 1108.003 1080.01 1083 1114.987 1146.981 1143.995 1139.995 1120.005 1114.001 1120.995 1120.999 1136.994 1157.992 1174.993 1180.994 1159.008 1153.002 1156.999 1170.998 1208.991 1245.993 1278.992 1298.998 1317.001 1315.01 1311.008 1318.001 1338.993 1319.013 1290.019 1281.011 1291.998 1299.995 1289.002 1263.007 1237.006 1200.015 1162.021 1144.017 1151.003 1163.992 1159.996 1145.002 1126.007 1114.004 1099.004 1081.004 1053.011 1019.015 984.014 944.017 900.022 867.019 845.011 825.008 798.008 762.015 727.02 703.016 683.018 688.009 685.01 643.028 608.022 554.03 500.03 459.026 436.018
460 446.004 441.002 446.995 449.998 455.997 454.999 448.002 442.001 442.998 443.998 442 439 440.999 438.002 436.002 434.005 436.005 440.001 425.008 415.005 414.001 411 403.002 388.006 379.005 375.003 373.001 372.999 371 371.999 371 370 371 372.999 375.997 374 373 368.002 367.001 368 372.998 371.001 364.003 362 352.005 351.999 354.997 353.999 364.994 375.992 390.989 398.989 411.986 423.987 421.996 420.995 423.993 453.981 498.975 542.974 547.994 543.998 545.995 536.003 518.007 509.003 495.005 475.009 457.013 445.009 426.009 392.015 365.012 339.012 317.01 303.005 297.003 294.006 306.997 305.001 293.004 280.005 283.996 302.987 315.989 309.998 307.997 295.003 286.002 282.999 271.003 264.002 262 260 258.001 260.999 262.002 273 287.997 282.008 275.009 274.003 268.005 282.996 288.001 292 294.999 294 290.001 288 284 275.002 267.004 267.001 270.998 275.996 276.999 277.999 275.001 270.002 258.007 248.006 241.005 232.006 227.002 235.995 260.986 277.989 291.995 275.014 264.012 260.005 260.999 252.003 249.998 256.992 250 241.002 244.995 239.002 239 236.001 231.003 233 239.997 242.998 241 234.003 239.994 242.995 243.996 238.001 227.004 232.998 243.999 257.997 261.999 250.003 231.01 233.001 243.993 248.997 251.999 248 237.005 237 242.997 246.998 251.997 254.997 253 250.003 238.007 248.994 263.99 256.002 246.004 243.001 245.998 248.999 251 255.002 256.005 265.004 282.001 286.005 288.002 288.002 292 289.005 306.994 347.986 392.986 448.982 511.975 562.98 608.982 646.984 682.983 719.98 738.988 731.001 704.013 682.017 675.014 674.012 677.007 667.012 654.015 650.01 662.999 668.004 680.003 701.001 725.995 771.979 812.981 822.999 838.998 870.988 901.989 907.005 898.013 904.009 917.005 920.008 919.005 895.013 842.03 809.026 801.013 793.011 783.009 772.007 746.018 744.01 759.001 753.01 730.011 675.024 622.025 575.022 537.015 502.01 463.018 448.017 451.011 459.007 457.009 442.015 430.014 422.013 428.004 428.006 431.002 443.997 466.996 480.002 468.013 464.004 496.981 533.978 554.986 577.987 587.993 601.987 613.986 613.995 624.993 643.989 665.99 695.989 726.992 758.992 798.986 831.984 859.979 888.975 910.979 948.978 997.974 1018.982 999.995 985.992 978.992 965.996 969.991 968.991 958.993 952.993 934.997 929.991 919.996 921.999 941.998 965.998 995.994 1030.991 1061.995 1076.003 1068.015 1079.005 1108.994 1140.997 1187.992 1228.995 1253 1247.013 1241.011 1222.017 1200.022 1184.017 1165.02 1157.013 1133.02 1121.014 1105.013 1071.021 1041.016 1007.017 992.008 984.006 979.003 997.988 1003.994 1005.001 990.014 985.008 1003.999 1020 1033.997 1047.999 1074.992 1098.992 1127.987 1151.989 1154 1160.999 1155.003 1139.007 1115.013 1092.012 1079.006 1074.002 1071.999 1079.993 1105.983 1098.001 1073.01 1085.995 1116.983 1128.988 1120.996 1115.996 1107.002 1108.998 1112 1116.002 1139.992 1163.989 1176.992 1167.999 1152.004 1149.002 1160.001 1187.997 1236.984 1280.983 1303.994 1324.995 1351.988 1349.003 1334.01 1332.004 1347.994 1334.011 1313.016 1307.009 1303.004 1294.003 1277.006 1248.013 1217.016 1196.011 1180.014 1180.01 1174.01 1155.009 1138.004 1128.997 1122.995 1110.998 1091.004 1068.005 1049 1019.008 979.018 943.019 910.018 884.015 852.016 821.013 785.02 761.018 746.014 726.016 718.011 729.998 719.008 681.021 634.026 580.03 525.031 492.021 465.021
453.002 439.005 439.999 439 446.995 454.995 449.003 444.002 435.003 437.998 438 438.997 435.001 441.999 440.004 440.003 449.001 459.998 452.005 429.011 419.006 416.003 407.005 399.005 386.008 382.004 378.005 374.004 371.003 369.002 371.001 370.002 370.002 372.001 371.002 371.001 372 371.001 368.003 368.999 370 372.999 372.002 362.009 360.007 356.009 348.01 349 349 360.992 363.995 372.991 371.995 378.993 393.987 401.991 401.996 400.995 430.979 477.969 514.974 534.981 528.996 528.994 530.993 514.003 505.001 491.002 478 476.998 459.007 427.016 392.017 366.012 342.013 317.015 300.009 299.004 311.998 316 305.006 287.007 276.006 275.002 284.993 294.991 291.998 293.997 286.003 280.003 273.001 264.003 259.002 259.001 258.003 260.002 262.001 271.001 289.996 301.996 301.002 296.003 284.004 278.003 292.995 298.999 297.002 297 293.002 289 284.001 276.002 269.003 268 270.998 270 270.001 274.999 276.999 275 269.999 264.996 255.999 249.999 239.003 228.005 232.995 249.987 265.988 295.981 298.999 291.007 271.013 258.005 249.004 240.007 238.003 237 233.001 234.002 237.005 239.004 234.004 233.002 235.001 241.998 240.003 236.006 232.006 228.004 228.999 231.997 230.001 224.004 235.996 257.992 267.992 262.997 240.01 236.004 240.999 237.001 244.999 251.999 242.004 237.002 238 240.998 245.997 249.998 247.001 249.998 257.997 246.01 243.005 248.995 251.999 245.006 242.006 245.001 249.998 254.999 268.995 278.002 294.001 312.997 312.008 298.012 294.004 297.999 303.998 313.998 360.981 412.978 472.973 522.979 570.977 615.976 647.982 678.982 704.982 722.985 721.995 710.006 711.008 718.007 717.009 710.013 698.015 688.016 683.012 682.007 690.001 711.993 740.989 750.004 769.998 807.984 833.99 856.996 878.994 911.985 933.991 933.006 947.001 956.004 954.008 938.01 906.019 870.025 852.019 838.017 821.013 801.01 781.014 772.013 780.005 787.001 780 734.015 674.024 630.016 581.02 532.018 483.021 466.015 487 499.001 499.008 488.014 473.017 464.018 460.015 454.015 451.01 445.009 455.998 488.981 507.986 499.003 473.018 479.003 509.983 537.98 564.981 577.988 576.997 581.998 595.994 615.99 634.99 665.984 703.982 748.977 779.982 811.98 826.984 825.991 839.984 866.981 927.964 979.969 984.992 949.007 930.996 934.983 928.993 942.981 932.993 916.998 915.988 894.999 889 889.004 919.988 965.981 997.992 1023 1055.996 1094.989 1112 1113.01 1115.007 1135.997 1181.985 1233.983 1279.986 1295 1285.016 1273.015 1257.018 1246.016 1224.02 1209.016 1192.011 1171.013 1156.007 1127.012 1095.011 1051.017 1015.017 999.011 993.005 981.009 983 990.999 1009.996 1017.004 1006.01 1029.99 1044.994 1047 1067.991 1087.993 1109.994 1124.996 1148.984 1156.993 1168.99 1158.004 1139.008 1123.006 1099.012 1081.013 1073.007 1065.005 1065.998 1085.985 1086.994 1068.006 1087.987 1102.987 1101.995 1091.004 1093.001 1099.996 1105.998 1114.998 1128.993 1149.986 1161.993 1166.994 1150.004 1142.002 1150.997 1180.989 1221.985 1257.986 1290.985 1319.987 1340.992 1350 1355.998 1346.003 1343.995 1350.988 1351.992 1340.001 1331.002 1313.008 1292.012 1273.015 1251.017 1228.015 1205.016 1208.007 1219 1202.01 1156.027 1123.022 1102.013 1094 1083.998 1070.998 1047.003 1019.005 1001 982.004 954.012 925.017 898.017 861.022 819.029 800.022 789.015 775.012 752.015 745.007 744 731.005 696.017 657.017 603.024 550.026 518.023 501.017
444.001 433.004 437.995 435.998 439.995 450.993 449.999 444.002 433.004 435.999 436.999 431.002 433.002 449.997 452.004 451.005 465.995 470.997 457.002 432.009 426.003 423.002 411.006 403.002 393.005 391.003 392.002 384.004 377.006 373.004 376.999 375.001 377 379.002 377.005 373.006 375.002 374.004 373.003 368.003 372 376.001 377.002 380 383.998 383 374.003 352.01 348 351.998 349.999 354.994 353 362.994 369.994 381.99 384.995 380.998 400.985 438.974 475.971 495.978 502.988 506.988 506.989 495.997 491.994 475.001 458.001 465.989 455.002 435.01 400.019 370.016 352.01 334.012 308.016 314 325.997 322.003 308.007 284.012 279.005 280.002 274.004 275.998 280.996 286.997 285.999 280.001 267.006 259.004 259.001 262.003 267.005 270.003 271.003 290.994 305.995 307.001 306.001 300.001 280.008 281.003 298.994 303.998 302.001 297.003 293.003 282.006 278 269.004 268 267.999 268.001 269 272.998 277.998 277.999 272.999 256.002 243.002 236.001 235.999 231.001 228.001 223.003 229.996 246.987 273.979 301.98 305.996 287.013 255.025 249.014 253.006 246.009 234.007 232.002 241.999 260.994 258.005 242.012 238.003 242 245.002 250.004 251.007 250.007 237.009 228.006 227.003 229.001 231.003 241.999 263.987 253.002 244.004 238.007 244.997 246.998 235.006 252.992 259.995 242.01 238.004 238.999 238 240.998 248.995 246 247.998 257.994 262.997 257.005 241.008 251.994 256.999 261.003 255.007 249.005 260.996 273.996 301.989 325.991 333.999 341.998 322.009 303.011 300.003 304.999 321.992 366.98 414.979 468.973 524.969 563.977 600.98 633.981 661.98 680.983 693.985 699.991 713.993 742.989 755 749.01 748.009 737.015 731.014 721.015 708.015 709.006 720.998 748.988 778.988 793.999 810 840.992 878.986 892.998 909.995 937.986 955.994 974.992 986.996 980.004 951.018 927.019 907.02 894.017 880.011 841.02 807.021 800.012 806.006 813.002 804 768.009 714.016 664.018 619.019 577.017 521.019 481.019 494.999 520.994 522.004 531.001 522.013 514.015 516.012 511.017 503.015 483.017 468.015 468.007 472.003 487.995 493.999 498.002 499.004 496.007 507.996 536.983 553.986 562.994 583.991 597.995 612.996 629.997 657.989 698.978 734.976 760.98 787.981 791.989 789.994 801.988 838.976 891.966 946.962 961.981 916.012 884.003 875.995 892.983 891.987 889.987 880.991 869.996 858.008 878.997 902.996 925.992 969.98 1018.979 1064.981 1096.989 1117.995 1139.996 1150.997 1147.003 1160.997 1200.985 1256.978 1301.979 1321.992 1330.998 1312.011 1298.006 1288 1265.009 1244.01 1207.015 1185.004 1157.005 1123.01 1083.015 1044.017 1021.011 1015.002 1004.004 994.004 987.004 999.995 1026.99 1042.995 1026.009 1031.996 1045.99 1049.997 1068.989 1093.984 1122.982 1133.989 1128.997 1143.988 1151.991 1152.995 1139.005 1119.009 1105.007 1100.006 1085.01 1072.009 1061.006 1062.998 1065.996 1058 1071.987 1078.99 1079.997 1088.996 1099.993 1096.999 1107.994 1121.99 1123.997 1130 1155.988 1153.999 1137.006 1136.001 1154.994 1189.986 1233.979 1264.978 1287.983 1317.984 1346.987 1364.988 1357.994 1339.004 1320.004 1315.993 1322.986 1322.99 1321.993 1313.999 1302.006 1300.004 1279.013 1246.02 1229.016 1239.002 1237.004 1213.013 1182.018 1151.021 1116.026 1082.025 1059.011 1042.002 1019.003 991.007 972.004 966.996 953.003 943.003 918.014 882.027 859.024 852.015 827.021 799.02 771.022 759.013 742.013 728.007 701.012 656.02 606.023 561.025 551.013 538.013
436.002 430.007 428.006 425.002 427.999 440.994 445.998 440.002 431.003 436.996 435.001 430.002 442.992 465.985 469.997 468.999 472.996 465.999 443.007 424.011 426.001 427 413.007 399.007 397.003 400 401.001 387.01 387.001 383.002 380 376.002 381.998 390.997 394.001 390.005 387.003 387.001 383.003 373.008 380 385.998 385.002 385 383 381.998 372.003 353.008 342.006 351.995 343.004 342 349.996 357.995 356.999 364.994 368.994 366.996 375.99 401.981 425.981 443.984 466.982 467.994 465.995 464.992 461.992 450.996 434.002 436.992 442.993 440.002 413.014 383.016 362.013 350.008 327.016 324.005 333.997 328.004 313.009 290.013 288.001 290.997 279.005 271.004 272.998 286.989 280 273.001 267.002 261.003 263.999 279.997 294.997 285.005 283.002 302.993 312.996 313 307.001 294.002 277.008 293.995 304.996 306 303.002 301.001 296.003 286.006 271.009 269.002 267.001 266.001 269.998 269.003 270.998 276.993 273.998 262.002 237.01 229.003 230.001 231.999 226.003 227.001 228.002 227.002 227.001 236.992 271.975 296.98 303.994 299.005 293.001 282.999 267.003 239.011 238.001 253.993 270.994 272.999 260.004 243.007 246.998 256.001 273.999 279.999 275.001 251.014 237.009 235.005 238.002 246.002 257.997 251.002 243.003 245 252.995 244.003 241.001 238.003 250.993 252.999 252.002 248.005 238.006 236.002 239.997 244.998 242.002 244.998 249.998 258.996 265.995 245.01 246.999 262.99 277.991 270.005 257.01 264.001 281.998 306.995 332.991 344.996 345.997 325.01 312.009 305.004 310.998 320.996 364.978 415.974 454.98 500.976 540.979 584.976 615.978 633.983 646.986 657.989 676.989 709.984 748.982 775.99 776.004 780.002 775.008 773.009 763.014 744.018 733.011 734.004 750.998 781.991 813.988 837.993 863.994 886.992 907.994 919 929.998 962.983 976.988 992.987 983.002 973.008 961.016 951.012 936.008 898.017 852.024 832.016 834.006 838.999 832.995 790.008 743.01 687.017 651.01 616.01 571.012 500.032 487.015 515.994 540.992 539.005 548.001 558.003 559.012 566.009 566.008 547.015 516.02 499.017 496.012 490.011 495.002 500.002 511.997 516.001 517.003 513.006 520.999 526.998 553.985 584.978 600.988 621.993 645.995 662.002 683.996 703.992 727.986 759.979 757.994 762.992 774.987 808.975 848.97 894.963 913.977 885.002 842.011 842.992 854.985 838.997 836.993 832.998 837.001 866.991 903.988 928.99 934.001 965.987 1021.972 1067.975 1106.979 1133.984 1159.981 1158.99 1149.996 1171.984 1211.979 1264.974 1296.979 1322.979 1338.976 1321.987 1295.996 1271.998 1259.996 1246 1203.015 1163.017 1129.014 1103.008 1074.011 1044.017 1025.013 1013.008 1002.005 994.005 989.007 1000.999 1032.988 1049.99 1031.008 1027.001 1032.996 1044.993 1059.991 1075.99 1100.983 1109.989 1108.995 1122.989 1131.992 1136.995 1133.001 1119.007 1109.006 1112.999 1098.009 1083.008 1064.012 1057.007 1055.004 1046.004 1043.998 1053.992 1071.986 1089.987 1092.992 1089.001 1104.99 1106.997 1115 1138.991 1154.988 1144.999 1132.007 1137 1161.993 1195.987 1227.978 1233.987 1260.98 1305.971 1344.973 1347.989 1324.001 1323.994 1302.008 1281.006 1281.992 1284.99 1293.987 1296.995 1305.999 1312.998 1294.009 1267.018 1263.01 1263.008 1247.012 1221.017 1201.013 1181.014 1155.016 1122.019 1064.031 1023.022 994.017 971.016 954.009 942.999 940.991 936.992 930.001 924.007 911.012 899.009 865.022 828.028 807.02 790.016 764.018 733.019 701.016 656.02 611.025 582.022 585.006 567.016
442.009 446.004 447.003 428.01 427.999 439.994 445.996 439.002 429.004 431.997 433.998 431.002 432.997 446.987 465.985 462.996 465.997 451.006 433.01 433.002 435.001 430.005 416.011 403.01 406.001 405.003 408.001 401.004 391.004 383.002 375.005 377.999 384.998 395.997 402.997 403 394.006 391.003 388.003 387.004 390 390.002 390.001 385.003 378.004 371.004 366.001 353.008 345.004 350.995 343.003 342.001 347.997 350.996 350.998 355.995 352 349.998 352.997 372.987 391.986 410.986 436.983 445.99 442.993 432.993 425.993 416.995 414.994 411.996 426.988 442.989 422.008 394.013 376.009 362.008 349.009 338.008 340 333.004 322.006 301.011 289.005 284 277.001 272.003 268.007 268.001 268.999 266.001 264 261.002 267.001 294.991 309.994 288.01 286.002 307.991 315.997 314.001 302.004 281.008 281.004 302.992 308.998 307.001 306 303.001 299.002 293.004 282.008 274.007 267.006 267.002 268.999 279.992 267.004 262.001 261.995 249.002 232.007 227.003 234.998 231.004 229.001 230.999 235.998 234.002 231.001 224.003 234.991 260.981 291.98 308.988 287.008 263.007 251.001 236.007 239.002 251.999 277.989 270.998 253.006 242.005 246.999 272.989 301.986 288.006 271.004 265 248.008 249.004 251 267.99 265.001 247.008 243.001 248.997 246.001 239.004 241.001 244 245.999 251.998 257.998 258.998 245.006 240.004 237.003 243.998 245.001 243.002 249.996 257.996 259.999 247.009 248 252.997 268.99 276.992 272.002 278.999 303.99 328.99 341.998 349.995 336.007 329.006 325.003 309.01 314.001 320.996 353.984 402.976 444.979 485.98 528.978 565.977 583.983 597.987 615.987 635.989 667.986 704.985 743.985 783.979 791.99 794.994 797.998 805 801.008 781.015 756.018 751.007 769.998 798.995 822.996 850.991 882.989 894 919.989 936.993 942 952.995 954.995 969.986 974.991 987.99 1003.991 981.008 941.016 898.02 869.019 858.013 860.998 844.999 802.009 747.014 703.009 657.013 631.002 596.008 543.018 505.023 523 539.999 551 555.006 567.003 587 606.001 612.001 598.007 572.014 542.018 534.011 535.008 521.016 510.014 517.003 520.003 525.002 530.001 530.003 532.002 530.006 539.998 552.993 580.988 628.979 666.983 695.987 706 707.007 716.001 734.989 732.997 738.993 744.991 768.982 801.975 830.975 857.974 844.994 812.006 814.992 817.99 800.005 805.998 817.001 845.995 883.987 918.981 932.992 944.994 968.987 1007.979 1050.975 1089.975 1117.977 1128.983 1116.995 1120.993 1148.986 1199.976 1253.97 1271.984 1285.981 1272.989 1244.996 1237.99 1224.994 1224.99 1223.99 1190.009 1160.009 1127.011 1091.013 1069.01 1058.009 1044.01 1025.011 1004.012 999.006 1006 1015.996 1040.986 1038.001 1030.005 1023.006 1027.998 1038.995 1051.994 1062.992 1077.987 1080.994 1089.995 1103.993 1117.993 1126.994 1129.997 1124.002 1116.005 1115.001 1107.004 1088.013 1080.007 1074.007 1066.01 1046.014 1034.008 1038.996 1049.99 1070.983 1066.997 1086.986 1094.991 1098.997 1126.986 1145.985 1136.997 1126.004 1136.992 1145.994 1177.985 1203.984 1196.995 1195.995 1227.981 1271.975 1306.978 1308.99 1288.003 1299.99 1294.997 1270.007 1254.001 1250.994 1257.993 1283.99 1315.988 1317.004 1298.017 1292.012 1295.006 1293.006 1267.016 1243.014 1218.012 1201.006 1173.008 1140.01 1088.022 1039.028 1011.019 994.01 959.017 919.02 902.006 900.994 923.978 940.979 934.989 914.998 891.006 872.01 850.018 824.018 791.02 754.022 709.026 659.028 630.021 618.015 613.01 598.009
471.002 469 460.001 434.012 423.006 437.99 439.996 436.001 428.003 426 429.997 431.998 425.001 421.999 439.986 443.993 459.99 450.004 440.005 441 442 441 434.006 421.011 413.006 414.002 417.999 406.004 389.008 379.006 379 378.998 388.994 400.993 402.994 401.997 402 397.003 396.002 399 396.003 396.001 395.001 390.004 382.006 376.004 363.008 360.002 346.006 340.003 342.999 344.998 345.998 341.001 341.998 345.996 344.998 339.001 347.993 354.994 370.99 389.987 414.982 421.988 412.995 391.003 386.995 381.996 388.992 390.996 404.988 426.981 418.999 396.009 381.004 371.001 361.002 349.006 343.003 337.002 328 308.007 290.008 275.007 269.002 276.999 287.001 273.011 268.004 263.007 261.004 264 279.995 305.991 312.998 291.009 289.003 309.993 316.998 314.001 296.007 278.011 296.995 309.995 310 307.002 306.001 303.002 301 298.999 294 286.002 278.004 274.001 268.002 266.001 261.003 256.003 243.005 234.003 229.003 231.001 238.997 238 230.002 231.999 235.998 236.998 231.001 225.003 219.006 230.996 265.981 290.985 282.002 250.014 236.007 239.001 249.996 269.992 280.992 251.011 246.001 242.003 252.998 274.992 296.992 287.005 258.012 255.998 252.002 265.991 254.002 258.997 261.996 246.005 239.004 245.997 244.001 242.001 246.997 249.997 247.002 254.996 261.995 254.002 244.006 246 242.003 246.996 251.997 247.003 246.001 256.995 260 259.003 249.007 248.002 258.996 259.002 269.995 284.995 308.99 331.986 355.984 344.004 339.005 339.006 331.012 322.013 328.002 317.007 345.988 391.979 435.978 476.976 514.976 537.983 549.99 570.986 595.985 626.984 666.982 708.982 751.975 768.98 765.988 776.985 794.988 816.991 825.001 806.015 784.017 770.012 793.991 826.989 848.996 864.999 892.992 912.994 920.001 936.994 948.996 951.997 940.002 942.992 948.992 971.983 996.98 975.004 936.018 904.019 895.01 888 858.005 816.009 764.015 709.021 665.016 631.009 595.01 567.007 522.022 529.003 552.996 565.001 571.004 583.004 599.002 619.001 642.997 627.012 603.017 581.018 559.021 561.008 567.007 557.016 545.015 539.01 536.008 541.003 542.004 540.003 543.001 549.001 549.005 549.004 579.987 627.974 663.98 694.984 722.989 733.998 733.998 726 719.999 721.994 720.996 740.985 761.982 784.979 801.98 799.99 779.003 787.991 784.001 789.999 807.998 838.994 876.99 897.994 902.998 923.989 941.989 959.992 992.984 1027.98 1060.978 1076.983 1080.989 1076.996 1098.988 1140.98 1194.972 1227.977 1240.986 1236.99 1209.999 1185 1186.988 1181.992 1184.987 1181.991 1167.997 1145.003 1116.007 1082.012 1071.998 1072.994 1057.007 1034.011 1014.012 1013.006 1018.001 1016.005 1027.994 1036.995 1037 1033.005 1029.004 1038.996 1048.994 1048.999 1052.998 1063.995 1083.992 1101.995 1113.995 1118.998 1124 1122.002 1121.002 1118.002 1110.004 1105.004 1095.007 1092.003 1091.001 1067.015 1046.011 1031.007 1031.997 1040.994 1048.995 1067.988 1073.999 1095.991 1120.983 1120.991 1109.002 1120.993 1125.994 1138.994 1174.981 1184.987 1166.001 1173.993 1207.98 1249.977 1279.982 1275.995 1264.003 1281.985 1275.991 1253.999 1232.002 1222.003 1242.995 1287.984 1324.983 1333.995 1330.005 1327.005 1322.004 1311.003 1285.007 1255.009 1223.012 1194.01 1158.012 1122.014 1087.02 1065.013 1038.013 1002.018 964.022 928.023 895.017 876.005 876.988 888.98 881.988 872.989 872.985 879.986 883.995 850.016 814.018 776.018 732.023 683.027 663.012 656.008 642.007 607.012
473.998 464.001 447.01 437.009 429.007 424.003 426.997 431.995 427.001 423.001 425.997 426.997 417.004 413 414.997 423.994 449.988 448.999 443.001 441.997 444.995 440.999 445.995 440.003 423.011 425 421 403.006 391.004 384.003 378.003 373.001 381.994 395.989 384.001 387.997 401.994 402.001 403 403.999 401.001 401 399.001 396.001 390.003 382.004 370.006 362.004 345.008 342.002 343.001 340.002 340.999 337.001 334.999 338.996 334 332 336.996 341.997 358.989 370.99 387.987 388.993 377.999 366 359.998 358.997 371.987 377.992 381.992 390.986 400.986 391.001 373.005 359.005 353 352.998 346.003 334.004 314.007 302.003 289.004 276.005 267.005 286.993 307.992 290.012 276.014 280.006 272.009 268.005 286.993 313.987 317.999 290.015 298 317.992 319.999 313.002 293.007 289.005 308.992 311 311 310 307.002 304.002 298.002 291 284.999 280.999 278.999 270.004 266.003 265.003 265.001 259.002 241.007 229.006 233.999 238.998 241.998 237 226.004 232.996 235.996 230.003 225.004 227.001 233 234.003 252.996 276.991 273.002 249.011 238.007 247.996 252.001 272.993 270.004 244.013 243 247.997 261.996 282.996 303.989 290.001 255.013 244.006 251.999 254.998 243.005 256.993 252.003 238.008 241.998 247.999 244.004 242.001 242.999 242.999 250.995 252.999 252.999 249.003 249 251.003 245.008 241.002 249.995 252 248.002 257.995 264.997 267 259.006 254.004 260.998 266.999 271.002 289.993 308.99 316.993 335.988 338.001 349.002 363.002 362.008 358.007 345.008 324.012 346.991 389.978 426.976 452.976 487.972 510.981 532.984 553.986 579.984 616.982 664.976 708.972 727.977 721.988 715.994 737.987 777.982 818.983 843.991 832.012 811.017 791.019 800.004 840.987 868.991 885.996 909.991 923.998 934.001 941.997 951.991 946.997 927.008 917 926.988 945.983 961.985 953.995 939.004 924.009 917.996 876.011 827.013 780.01 736.012 697.011 652.013 610.014 572.014 546.012 532.014 553.999 577.001 588.005 595.005 617.999 634.004 658 671.003 648.02 629.02 615.018 603.015 596.012 604.007 600.013 584.017 567.014 560.009 559.006 558.006 550.011 552.004 563.999 569.005 566.008 580.997 609.985 648.977 685.978 725.975 742.983 725.999 712 706.999 701.997 703.995 716.99 728.989 741.988 753.989 757.993 755.001 766.997 780.998 797.002 831.994 868.991 902.992 908.999 903.004 917.994 929.993 958.984 985.985 1010.984 1030.983 1038.991 1043.994 1054.995 1090.985 1134.976 1176.972 1194.983 1210.982 1193.997 1162.003 1143.999 1145.992 1141.994 1140.992 1141.99 1132.994 1117.001 1096.004 1070.007 1048.007 1049.994 1056.995 1039.013 1026.015 1035.002 1032.005 1030.005 1026.005 1031 1037.999 1046.997 1038.004 1040.997 1042 1045.001 1052.999 1063.996 1087.989 1113.989 1115.002 1121 1130.998 1125.006 1128 1119.006 1111.005 1111.002 1105.006 1097.003 1091.999 1083 1053.011 1034.007 1022.006 1031.995 1044.992 1052.995 1078.987 1098.989 1096.995 1086.003 1097.992 1113.986 1109.995 1135.979 1161.977 1151.996 1140 1158.987 1188.982 1230.976 1259.981 1251.999 1255.994 1253.993 1233.001 1213.003 1204.002 1214.995 1256.981 1301.977 1319.986 1327.993 1341.988 1339.994 1327.998 1303.005 1270.008 1239.007 1215.003 1185.006 1145.012 1117.007 1104.001 1077.011 1044.018 1010.018 983.013 955.014 905.025 863.019 833.008 830.99 822.992 815.989 816.985 836.978 871.972 854.001 822.014 783.017 745.019 704.023 676.018 674.002 645.014 595.023
471.002 453.012 456.004 453.006 444.008 426.012 420.003 421.998 423.998 420.001 420.999 417.001 414.002 408.004 405.001 416.995 446.986 444 435.002 427.002 431.994 431 436.998 441.997 436.001 429.001 416.005 397.008 387.004 382.002 380.999 369.005 372.996 377.994 368.003 382.99 401.985 404.994 403.997 402.996 400.998 400.997 397.999 395.998 391.001 384.002 374.004 363.004 349.006 346.003 347.003 341.005 337.003 334.001 329.003 329.998 327.001 326.998 330.997 339.995 346.994 351.994 367.989 363.999 354 346 341.001 343.995 344.995 356.989 356.993 352.994 365.987 379.99 364.005 354.003 343.004 346.996 343.999 329.005 308.009 295.005 281.008 274.005 270.003 293.989 313.991 306.007 305.005 309.001 293.009 280.011 292.001 310.994 319.997 302.013 311.999 321.996 321.001 309.007 288.012 301.997 312.997 313.001 312 309.002 309 306.002 296.005 281.009 273.008 270.007 271.003 269.004 270.002 272.999 268.001 255.002 237.007 231.003 238.997 240.999 239.001 230.003 224.002 227.997 225.004 230.002 233.001 235.002 243.002 249.008 269.999 282.998 273.005 250.011 248.002 250.003 262.002 281.995 280.001 252.013 242.006 245.001 269.991 300.985 297.995 269.008 246.009 249 260.996 251.007 242.007 251.996 257.002 244.01 240.002 253.995 252.005 243.005 240.002 240.001 244.997 251.996 251 253 250.005 265.995 264.002 243.011 245.999 256.995 248.007 255.996 266.994 271.996 270.001 261.006 263.999 272.996 286.993 295.993 301.995 304.997 321.992 344.992 373.993 393.996 390.005 377.008 353.011 336.011 349.992 376.981 395.982 405.986 439.974 477.973 509.977 536.98 562.983 610.972 651.973 675.975 669.988 666.99 681.99 722.981 775.978 823.977 850.986 856.999 842.014 829.015 830.01 859.992 882.992 898.996 915.995 937.992 953.992 942.999 935.995 928.995 923.997 902.006 897.994 911.987 929.985 921.998 927.994 931.992 894.006 849.009 796.016 740.022 708.012 673.015 626.025 594.017 564.015 548.014 561.002 587.997 617.997 625.003 627.005 651.999 676.002 698.002 703.01 686.02 674.015 661.012 641.019 632.016 643.005 642.008 624.015 594.021 582.013 581.008 580.008 579.01 572.014 582.002 597.997 591.008 595.002 601.001 624.989 661.977 695.974 706.983 693.996 687.998 694.992 683.002 689.994 699.993 707.993 717.994 731.991 737.995 751.992 776.99 797.995 831.991 867.989 897.993 929.988 915.011 909.007 920.999 925.001 946.989 972.982 989.985 997.993 1018.987 1029.991 1053.984 1092.979 1117.981 1138.979 1158.979 1168.981 1153.994 1121.005 1110.997 1116.988 1113.993 1106.999 1103.996 1095.999 1095.998 1075.007 1055.005 1039.006 1031.001 1049.989 1056.998 1060 1056.003 1048.007 1046.004 1038.005 1039.001 1046.999 1051.999 1040.006 1036.002 1043.998 1052.999 1063.997 1069.001 1086.993 1115.984 1124.994 1131.996 1138.997 1137 1134.002 1126.006 1116.008 1119 1117.998 1096.01 1078.006 1067.998 1047.003 1030.004 1024.002 1028.002 1036 1047.995 1073.987 1090.986 1076.005 1078.001 1086.993 1087.994 1085.995 1100.984 1118.983 1120.992 1121.997 1140.99 1169.985 1209.978 1235.981 1232.994 1237.988 1221.997 1201.001 1190.006 1197.004 1215.996 1255.98 1287.977 1294.99 1312.985 1318.989 1313.994 1300.998 1282.004 1247.012 1214.01 1186.009 1157.012 1123.013 1097.007 1084.997 1074.997 1058.002 1021.012 989.008 961.006 918.017 864.026 814.023 791.009 781.002 763.006 760.992 786.972 822.964 828.981 820.991 783.013 753.018 724.021 697.016 680.007 650.012 598.021
476.998 468.007 477.998 472.005 460.011 442.014 422.014 418.006 419.001 417.003 417.005 415.006 417 412 402.003 416.994 442.986 439.999 427.004 420.002 419.001 427.997 439.995 437.001 431.002 423.003 415.002 394.01 384.006 380.003 375.003 367.003 366.001 365.001 364.001 368.995 375.992 386.989 390.993 385.996 388.992 387.993 388.994 384.998 385.995 379 371 361.001 350.006 351.002 360.998 351.011 342.008 334.008 331.007 325.004 324 321.001 327.995 334.995 333.998 336.997 350.993 353.997 339.006 333.003 335.996 329.999 328.996 335.992 331.997 324.999 338.988 365.981 358.001 348.001 340.001 336.999 333.998 324.002 308.008 294.008 290.004 280.004 275.003 292.996 313.993 320.998 323.001 321.003 300.013 300.004 313.997 318 322.999 321.002 323 324.999 322.002 314.005 297.013 312.994 317.998 315 311.999 310.999 308.001 307 300.004 289.008 290.002 293.001 286.006 280.006 279.003 273.005 262.004 240.007 233.004 233.001 241.995 240.002 240.002 228.009 223.005 225.004 236.005 245.999 241.003 245.998 263.993 289.992 300.998 298.003 276.011 252.011 254.002 265.002 289.995 296.997 282.001 256.008 249.002 252.002 278.99 294.989 275.005 250.009 242.005 254.996 266.997 260.007 253.006 254.998 273.988 259.01 240.012 259.992 265.998 249.011 244.006 242.002 243.002 247.997 249.998 255.998 265.999 274.997 268.001 249.009 249.002 255.001 258.003 254.005 260.996 264.997 271.997 268.005 266.003 270.999 284.993 285.999 290.998 297 320.991 351.987 393.98 411.99 403.002 386.004 355.014 349.007 344.009 350.005 357.003 368.995 398.978 438.97 476.973 506.979 539.979 584.969 615.972 619.982 614.99 621.994 667.98 718.975 778.97 814.981 841.985 864.985 870.995 863.006 870.999 879.001 890.998 909.99 925.989 942.984 948.99 921.008 905 899.994 903.991 889 869.002 884.987 903.984 900.995 914.986 909.994 855.017 810.013 767.015 730.015 701.013 673.016 643.014 606.017 570.026 574.011 592.005 620.997 657.992 650.01 651.003 689.986 722.991 743 748.007 733.014 712.016 686.021 680.013 678.01 681.005 671.006 650.01 624.016 610.012 608.009 610.011 614.01 613.012 607.014 614.005 610.009 610.005 613.004 623 633.997 654.989 661.994 657.001 668.994 674.999 670.007 678.996 690.993 695.997 711.989 721.991 726.994 745.988 779.982 813.983 855.976 885.981 919.98 936.988 931.004 927.008 937.001 934.004 939.997 945.996 960.992 982.989 1005.986 1014.994 1033.991 1078.974 1085.986 1094.982 1109.979 1112.984 1104.991 1085 1082.992 1080.992 1083.992 1090.991 1083 1079.998 1089.991 1065.008 1041.01 1034.001 1023.004 1038.994 1061.99 1062.995 1058.998 1059.999 1056 1044.008 1046.002 1055.996 1056.998 1043.007 1038.002 1050.993 1063.993 1069.996 1081.993 1088.995 1103.99 1116.989 1127.993 1138.994 1134.999 1135.996 1135 1130.002 1122 1110.002 1099.001 1071.01 1044.008 1023.005 1016.002 1020 1040.991 1047.998 1048.999 1065.988 1064.999 1071.996 1084.99 1075.001 1065.001 1063.998 1065.999 1082.99 1094.991 1113.986 1133.983 1159.98 1193.974 1207.982 1204.987 1198.989 1184.996 1169.004 1194.988 1222.989 1230.997 1244.99 1254.989 1268.985 1285.985 1287.992 1282.995 1271.998 1265.998 1235.014 1197.021 1174.015 1156.011 1116.02 1081.017 1055.01 1046.998 1037.996 1007.007 966.013 938.007 912.006 874.014 817.031 787.021 773.015 756.016 727.018 722.995 745.973 765.972 773.977 770.986 770.991 755.008 715.02 677.017 644.011 593.018
473.996 479.998 486.997 481.005 481.003 464.013 441.019 435.012 426.013 426.009 437.002 433.003 422.003 405.007 396.004 418.988 433.993 432 422.002 417 420.998 431.994 440.996 434.004 428.001 422 410.003 397.006 391.002 383.006 379.004 367.008 369.001 369 366.002 360.004 357.001 364.994 371.994 364.001 361.997 359.999 365.993 369.993 368.995 367.996 358.002 350.002 353.996 361.995 370.995 375.999 358.012 350.008 351.005 329.016 323.008 320.003 321.001 325.997 325.999 330.998 345.991 346.996 337.003 333.001 327.001 316.003 311.001 315.995 314.998 311 316.996 337.988 347.994 336.005 331.003 327.998 323.001 315.002 311 302.005 299.003 279.011 277.002 305.988 322.994 326.001 329 329.001 313.011 315.003 325.996 326.001 327 327 326.001 325 324.001 320.003 318.002 318.001 316.998 309.997 302.996 306.995 306.999 307 304.002 302.001 301.001 301 296.003 292.003 288.003 282.004 259.008 232.011 234.998 236.998 237.999 245.996 247.999 243.004 232.008 243.998 271.991 257.009 244.007 247.001 267.994 303.986 312.99 304.996 281.005 255.01 263.997 289.99 310.99 296.005 261.014 243.008 246.003 264.995 286.986 278.998 259.006 242.008 245.998 260.993 274.994 276.001 263.01 249.011 260.997 270.999 253.008 263.993 268.002 261.01 257.005 247.007 251.002 244.005 246.999 257.995 278.988 279.001 262.01 253.008 255.005 268.998 274.004 267.008 257.009 260.001 271.996 279.999 274.006 275.001 280.997 283.001 289.999 306.995 327.993 354.992 385.988 403.991 394.003 373.008 355.013 367.001 371.007 378.007 379.009 369.013 366.004 391.983 437.971 475.972 513.973 540.978 560.977 555.994 566.994 611.979 667.971 708.979 762.973 802.978 830.98 846.984 860.987 870.99 881.99 895.989 904.991 901.994 910.987 911.991 919.986 903.999 878.005 867.996 877.985 864.999 845.004 860.986 874.986 876.992 885.99 880 827.023 786.018 752.014 724.017 704.015 687.005 646.017 610.026 609.016 623.01 641.008 659.002 687.991 675.011 663.011 700.984 741.982 776.983 782.999 761.017 738.02 724.015 720.006 713.003 704.001 679.009 652.015 640.011 634.011 638.009 656.004 657.015 657.014 651.013 646.012 636.014 630.011 635.005 638.005 639.008 647.008 651.007 654.005 666.997 682.994 688.999 677.013 684.006 691.002 697.999 705.998 712.998 732.988 766.98 804.974 835.977 864.981 900.976 918.982 934.987 950.991 957 944.01 938.006 941.003 954.998 976.992 989.994 1005.992 1032.983 1052.979 1044.991 1040.988 1052.982 1057.985 1058.989 1052.994 1047.995 1047.995 1056.992 1069.99 1067.997 1068.994 1071.991 1055.002 1040.008 1028.008 1020.003 1043.989 1063.989 1045.006 1042.997 1055.99 1051 1053.001 1058.001 1059.001 1050.005 1046.002 1039.005 1045.996 1057.992 1062.996 1076.989 1081.994 1088.997 1097 1119.991 1133.993 1125.002 1122.999 1131.994 1127.998 1109.003 1096.001 1083.001 1063.004 1031.011 1009.01 1012.003 1024.998 1039.996 1052.995 1046.005 1047.999 1059.992 1068.992 1068.995 1064 1054.005 1056.001 1065.994 1074.993 1078.995 1093.989 1102.991 1125.982 1149.979 1163.982 1151.994 1147.994 1145.999 1156.998 1192.983 1226.976 1231.987 1228.993 1227.993 1236.99 1256.982 1261.988 1256.994 1245.998 1246.993 1236.003 1213.01 1192.01 1170.008 1127.018 1089.017 1052.021 1025.018 1007.012 981.015 948.021 918.021 891.019 866.018 841.023 818.022 808.01 788.012 748.023 699.028 682.008 690.986 700.979 711.98 736.98 757.986 723.017 679.022 632.021 578.023
464.997 480.992 488.996 490 491.001 486.004 474.01 470.006 461.005 461.997 461.994 436.008 416.007 403.006 396.003 411.994 432.993 429.001 414.005 410.002 420.994 428.994 440.992 437.999 421.005 413 402.003 397.001 389.003 392.002 388.008 379.01 376.002 370.001 368 365.001 357.003 356.998 359.996 353.003 349.002 350.998 348.002 351 350.002 350.002 348.003 346.004 346.003 355.996 366.994 381.993 373.007 366.009 370.002 354.015 343.015 328.015 325.004 322.002 322.999 330.995 337.995 333.001 330.999 329.999 320.004 310.005 306.002 307 305.001 305.999 310.998 327.992 341.99 337.001 333 315.007 318.997 308.003 305.001 305.002 305 286.011 282.001 306.984 328.987 332.998 334.999 333.002 330.003 330.001 330.001 331 329.001 328.001 327 324.002 325 324 322.001 321.999 309.003 287.004 276.999 294.986 301.993 306.996 305.001 304 302.001 301.999 300 295.001 290.998 285.999 253.015 229.011 233.998 234.001 236.998 243.996 248.997 250.001 244.005 256.996 283.991 268.015 248.021 256.008 279.997 308.988 291.006 275.003 262.003 251.008 268.994 295.986 308.99 292.004 256.013 244.005 261.99 275.992 271.002 257.008 248.006 245.002 246 258.994 273.991 279.993 278.999 268.008 271.003 283.994 255.012 256 282.992 286.005 271.01 256.012 264 253.006 249.003 258.997 266.996 281.991 273.01 270.01 277.005 286 296 285.01 274.012 268.01 278.001 290.997 287.005 282.005 281.005 289 298.997 315.994 336.992 368.988 391.995 401 390.01 370.013 376.004 390.005 404.004 416.004 416.009 401.015 375.019 369.006 402.982 433.98 472.973 501.977 506.991 522.995 560.986 607.979 649.98 698.978 749.974 785.975 800.982 813.983 834.98 849.985 862.986 878.982 885.987 872.999 874.99 877.988 878.988 873.991 855.001 837.002 838.99 839.994 827 832.99 842.989 847.995 860.99 868.992 826.019 785.019 748.024 741.008 727.005 678.022 643.023 648.011 669.004 685.006 702.002 698.011 702.006 696.009 684.009 702.993 741.981 771.985 790.995 790.009 776.012 758.008 736.007 714.008 691.011 670.015 663.012 664.011 665.012 678.008 703.005 716.007 709.016 691.022 684.014 672.015 663.014 662.011 663.007 671.006 689 686.009 678.013 676.009 687 696.002 705.004 718 710.007 705.006 712.003 717.002 722 746.985 769.985 799.981 841.975 868.979 880.985 910.977 942.977 966.981 962.003 952.012 959.005 969.003 983.998 988.001 1003.991 1013.987 1007.991 998.995 989.997 1003.986 1010.989 1016.991 1019.992 1018.996 1027.993 1042.992 1051.995 1053.994 1045.998 1040.997 1033 1043.989 1036.999 1017.009 1039.986 1055.987 1038.004 1029.002 1038.994 1043.997 1060.991 1070.994 1064.003 1054.005 1048.005 1047.001 1044.001 1048.999 1055.996 1059 1066.998 1088.99 1109.992 1124.993 1128.998 1116.006 1113.999 1124.99 1111.999 1089.005 1077.998 1064.001 1044.006 1020.009 1012.002 1027.994 1039.997 1049.999 1054.999 1053.004 1046.007 1048.001 1052.998 1051.001 1053.998 1055 1064.996 1061.006 1064 1066.999 1075.994 1084.993 1096.99 1109.988 1116.991 1109.003 1118.996 1138.99 1166.981 1188.98 1191.99 1189.992 1195.989 1198.993 1212.988 1220.988 1224.99 1225.991 1218.996 1219.993 1228.991 1215.002 1194.004 1165.007 1126.016 1092.021 1070.016 1047.016 1022.018 996.02 973.019 949.02 917.024 895.02 886.013 865.016 831.022 799.018 768.018 725.027 685.024 652.017 636.004 654.98 701.963 740.971 730.999 688.016 634.024 577.029
460.997 475.991 487.991 491.996 494.997 494 492.001 485.003 467.007 451.008 440.007 422.01 410.005 404.003 396.003 416.992 440.989 425.006 410.006 410.999 416.996 418.998 431.991 430.993 413.004 401.003 396.999 392 387 405.989 409.994 400.999 378.008 365.004 363.999 362.998 357.002 351.006 350.007 354.001 349.006 348.005 350.004 356.003 355.006 356.007 357.009 357.007 356.007 359.005 363 378.991 383.997 387.999 385.004 385.004 381.005 360.013 335.014 325.006 319.004 323.997 330.996 327.003 324.001 324 319.003 311.004 308.003 308.003 304.005 305.001 312.995 323.995 327.999 330.998 326.001 312.006 315.996 303.004 301.998 310.994 304.001 296.001 280.006 287.996 314.986 331.992 335.999 336.001 336.001 334.001 333 333.001 331.002 329.001 327.001 327 325 320.997 321.995 316.998 297.005 266.01 257.001 271.988 285.989 299.991 303.997 303 302 300 298 291.002 277.003 272.997 256.005 232.01 236 237.002 234.004 240.999 246.998 253.997 253.001 262.996 292.984 298 295.01 299.005 308.994 309.996 283.01 258.01 251.005 261.998 277 287 293.996 280.002 245.014 243.001 253.993 269.987 269.997 264.005 257.004 246.004 248.998 256.994 262.994 263.997 272.993 281.993 285.995 282 254.016 256.003 296.984 310.994 285.014 276.005 276.996 258.007 255.002 265.996 264.004 273.998 295.994 304.003 309.004 302.009 311.999 304.008 302.007 295.01 298.008 300.004 298.005 292.009 298.003 302.001 305.002 321.995 341.993 376.986 409.986 415.999 409.002 386.011 399.996 432.989 443.003 450.007 452.01 433.018 406.023 382.022 389.999 408.993 432.99 460.989 479.995 529.976 570.978 604.985 643.983 694.972 734.971 750.98 757.985 770.983 792.98 817.981 830.985 835.989 846.989 848.994 840.999 836.995 834.991 830.992 825.995 814 804.999 816.99 807.001 802.997 815.989 835.986 842.99 849.99 828.011 790.026 778.01 758.008 722.015 679.025 672.011 699.996 720 733.002 739.003 734.008 733.006 720.009 700.012 707 733.989 765.988 804.985 820.997 797.012 757.018 726.016 707.012 694.012 693.008 696.009 706.009 714.01 730.005 761.997 763.016 758.021 746.021 727.023 710.02 702.015 703.009 693.012 707.001 720.005 717.014 715.012 706.012 706.008 719.002 735.998 740.005 724.012 719.007 733.996 734.004 730.005 730.004 749.992 775.984 814.975 833.983 844.993 872.984 908.976 934.98 964.979 981.985 987.996 997.997 1000.996 999.995 997.993 979.998 963 965.993 961.997 971.99 980.992 990.992 995.994 1000.994 1014.99 1036.989 1048.994 1035.002 1025 1022.999 1018.001 1019.999 1022.999 1017.004 1025.992 1032.991 1025 1021 1031.994 1040.995 1054.993 1064.993 1061.998 1057.001 1056.001 1050.004 1042.004 1052.995 1051.003 1061.997 1072.999 1087.996 1112.986 1124.989 1127.993 1116.002 1106.999 1106.994 1088.002 1068.003 1052.002 1044.998 1035.001 1013.008 1008.002 1031.987 1046.99 1060.988 1059.995 1062.997 1061.004 1057.004 1053.004 1051.005 1052.002 1056 1064.997 1075.998 1068.01 1068.007 1069.004 1072.001 1079.996 1086.997 1093.997 1105.994 1118.992 1132.988 1140.988 1150.989 1158.99 1156.996 1161.993 1175.989 1189.987 1188.994 1191.994 1194.995 1193.999 1196 1209.994 1200.006 1176.01 1145.016 1124.013 1115.008 1095.011 1070.016 1048.018 1030.016 1008.017 987.015 955.02 934.015 920.008 892.013 857.021 816.027 784.024 756.021 712.026 663.027 625.023 609.006 636.974 695.955 708.983 679.008 635.021 591.023
457.997 467.993 474.994 482.992 486.996 492.996 491.001 486.004 465.015 455.011 447.007 431.007 411.01 406.002 396.004 419.987 437.985 422 409.005 410 410.001 414.998 417.996 404.004 398.999 392.001 387.001 383 379 393.989 394.994 384 371.004 358.006 357 355.002 354.005 365.003 374.004 366.011 362.009 365.007 370.005 376.003 377.005 386.001 392 385.007 381.007 382.003 368.008 371 380.996 388.997 393.998 399.997 395.003 376.009 348.012 331.009 324.006 319.003 326.995 330.995 323.003 325 322.004 313.01 315.005 318.007 318.007 309.007 306.002 324.99 329.995 327.997 323 313.004 308.999 295.008 294 303.992 298.001 286.004 275.005 284.996 306.991 329.991 339.997 340.001 339 334.003 333.001 334.999 334 330.002 328.002 326.999 320.002 302.007 304.994 300.996 281.004 253.01 246.002 252.995 268.989 289.987 300.994 300.999 299 296.998 292.999 286 264.008 254.005 247.005 232.007 240.994 245.998 244.002 247 248.998 253.996 256.999 264.995 280.989 306.982 328.987 323.004 303.007 296.997 277.006 256.01 260.002 273.993 300.985 302 291.005 266.009 241.011 243.999 245.999 248.003 258.998 272.992 261.004 243.008 246.001 248 249.999 253.997 262.994 268.994 272.996 277 269.012 272.008 305.985 310.994 295.002 282.001 262.007 253.005 255.999 268.996 275 282.998 310.988 329.996 331.007 324.016 323.011 322.011 324.006 322.009 332.998 317.011 312.007 315.004 319.001 314.007 318.005 331 346.998 381.989 412.992 420.999 405.007 391.011 406.995 444.98 471.986 488.995 492.006 470.016 450.012 426.012 401.013 413 434.997 463.991 491.99 520.99 553.988 604.977 644.978 672.979 690.98 702.983 710.987 728.984 753.981 786.977 794.986 800.989 824.982 827.992 821.998 810.001 796.001 793.995 799.991 793.996 785.001 796.992 795.999 783.004 794.989 814.984 815.994 823.994 834.997 826.009 798.014 757.019 719.022 703.015 703.009 730.992 754.997 763.007 761.008 758.008 754.005 733.013 713.012 719.997 735.994 771.985 813.979 834.988 803.018 760.026 734.018 721.015 718.011 723.008 737.004 756.005 764.01 774.006 804.998 825.006 831.01 808.023 782.025 758.027 747.019 738.013 722.015 733.005 758.997 767.005 756.01 735.014 737.006 747.002 757.006 764.007 745.018 737.012 742.003 750.999 743.007 745.003 751.002 758 782.984 800.988 834.98 859.982 875.987 902.981 934.975 951.987 982.982 1003.983 990.998 980.994 966.997 944.001 934.997 943.992 944.994 949.994 964.989 975.992 979.994 984.996 1000.993 1032.986 1044.993 1021.009 1008.003 1015.994 1013.003 1021 1024.003 1021.002 1012.002 1010.999 1011.003 1015.004 1025.998 1037.996 1049.996 1052.997 1049.001 1051.998 1056.997 1054.001 1044.004 1052.994 1059.995 1069.996 1088.99 1095.996 1101.994 1101.994 1107.989 1101.995 1087 1082.993 1064 1047.001 1034.001 1027.001 1024 1008.006 1006.002 1020.993 1033.989 1039.99 1038.996 1055.99 1071.99 1067.002 1062.005 1068 1063.004 1062.002 1069.998 1085.994 1094 1093.006 1087.007 1081.008 1077.007 1088.996 1093.999 1103.997 1108.997 1108.998 1108.998 1123.989 1135.989 1137.994 1144.992 1155.989 1161.992 1163 1173.996 1181.997 1188 1200.999 1208.998 1205.999 1176.015 1155.011 1138.009 1129.004 1105.011 1088.011 1079.008 1060.011 1036.011 1009.015 979.018 957.012 929.011 894.015 880.013 850.027 823.025 789.027 737.033 684.032 651.021 604.025 585.007 623.967 666.963 658.989 642.999 606.013
455.003 459.002 462.003 465.002 476.996 487.995 492.999 493.001 489.004 481.001 462.003 430.013 417.009 406.003 396.003 410.991 410.996 397.005 405.995 409.998 411.999 415.997 409.001 395.006 388.002 385.001 382.001 377.002 372.003 375.996 372 364.002 365.997 359.002 355.003 359 370.001 392.995 405.997 395.01 388.009 395.001 399.001 399.002 398.003 402.999 402.001 399.002 399.999 396.001 375.009 374.999 383.998 389 395.999 399.999 399 380.006 348.013 338.008 335.007 323.01 321.003 320.001 321.002 329.003 331.009 335.008 338.008 351.002 345.009 321.013 310.004 317.995 317.997 314.998 314.997 310 300.006 301.002 292.005 291.999 290.999 281.004 274.003 285.995 310.99 334.991 343.996 342.001 338.002 337 337 333.003 334 332.001 330.998 320 315.993 300.006 288.006 278.001 262.002 243.011 243.004 244.001 252.993 273.988 295.989 298.998 295.002 286.004 282.001 273.004 257.009 258.004 256.006 235.014 233.001 245.994 249.999 250.999 244.003 247.997 257.995 260.999 263.999 282.99 314.981 328.989 297.013 276.007 265.007 259.006 272.995 271.002 287.987 303.989 292.002 258.014 243.009 245.002 247 262.993 270.998 267.003 256.004 243.006 254.995 253.002 249.003 250.999 254.999 257.002 262.998 281.989 299.992 307.999 305.006 298.002 275.01 264.008 255.01 258.001 258.004 275.994 285.997 289.001 312.992 344.989 360.002 372.001 364.012 361.01 350.014 354.005 344.008 331.014 329.005 334.999 330.007 334.005 342.005 351.007 367.003 398.993 435.989 431.009 406.017 410 414.003 432.995 463.983 496.981 518.992 496.016 462.018 433.01 408.018 433.998 460.997 476.003 501.998 532.992 561.991 602.978 627.981 639.986 644.991 656.987 672.986 696.983 722.983 754.976 752.991 767.987 796.977 802.987 804.989 794.998 775.006 770.998 776.993 770 772.995 787.991 788.997 775.004 772.998 786.988 793.996 815.995 842.993 846.997 805.019 762.025 740.018 732.012 737.005 748.001 784.989 802.999 789.013 784.008 766.014 746.014 727.012 719.007 738.995 773.989 802.991 825.993 820.006 787.017 761.015 756.012 755.016 762.013 776.007 804.997 816.004 814.014 848.997 879.998 879.011 857.022 836.022 821.02 803.015 774.018 753.019 769.003 790.001 800.999 777.013 755.016 764.004 772.004 796.994 802.003 782.016 771.014 761.015 761.006 757.007 761.001 769.997 768.007 765.004 784.989 816.979 831.986 852.986 876.98 890.989 929.975 965.973 973.987 960.999 941.002 932.994 908.004 909.994 926.985 921.997 933.991 948.989 961.99 964.999 976.993 1001.985 1033.98 1037.993 1016.008 999.01 1005.002 1017.994 1032.989 1041.993 1023.011 1004.012 1005.999 1022.993 1035.994 1036.999 1043.995 1054.991 1047.002 1047 1051 1053 1054.001 1044.006 1046.001 1052.997 1072.989 1083.993 1091.991 1089.996 1079.001 1075.995 1073.991 1059.997 1048.994 1033.998 1020.997 1016.997 1019.997 1018.999 1005.004 1010.997 1019.991 1014.995 1012.996 1023.992 1043.989 1058.99 1065.997 1072.002 1077 1071.004 1068.004 1074 1087.994 1106.991 1115.998 1103.009 1101.005 1099.002 1095.003 1099.003 1109.002 1107.006 1103.008 1103.005 1107 1113.998 1119.996 1124.995 1131.993 1142.994 1162.991 1178.993 1184.999 1198.996 1217.993 1215 1198.009 1185.005 1164.007 1145.006 1128.007 1108.01 1102.002 1093 1070.006 1040.015 1022.009 996.01 967.01 924.019 894.018 906 902.008 874.017 834.022 777.031 717.035 677.025 622.027 579.02 563.001 596.968 604.981 611.981 592.994
471.001 475.001 478.001 478.003 483 488 497.996 497.001 496.001 473.009 443.012 425.011 430.999 399.016 390.004 399.994 397 392.002 402.995 409.997 410.999 411.999 401.006 395.002 384.004 382 380.001 378.002 375.002 369.002 366 358.003 357 355.003 358.003 366.002 390.994 412.993 416 414.002 409.004 409.001 408.001 408.001 408.001 406.001 404.001 401.001 399.001 394.002 375.009 373.001 389.992 396.997 401.999 403 396.003 371.012 346.016 351.006 355.005 342.01 328.012 322.009 329.998 354.99 368 372.004 373.004 380.996 368.999 331.018 307.018 311.004 308.004 302.006 304.003 302.005 305.003 309.003 295.009 287.003 286.999 280.004 274.005 285 315.99 338.992 343.998 344 340.002 337.002 337.001 336.002 336.001 332.001 322 302.002 282.002 295.987 289.997 267.005 244.011 254 258.999 251.005 240.007 263.988 289.988 297.996 296.001 285.007 278.006 272.006 266.007 275.998 276.002 253.013 232.009 242.995 251.995 248.002 244.003 245.001 253.995 260.997 265.998 274.999 296.992 310.993 293.007 269.011 272.003 271.008 277 275.002 268.002 288.987 279.999 253.011 251.002 256.999 251.007 261.997 277.992 272.999 252.009 244.005 253.995 257.997 255.001 252.003 258.002 268.002 265.008 272.996 297.988 315.994 322.995 295.013 275.013 278.003 277.006 266.011 272.003 283.997 291.998 298.999 320.992 357.985 392.986 397.003 396.004 395.007 384.016 380.009 359.015 361.006 343.014 342.004 349.999 359.999 373.999 392.002 407.004 427.001 454.997 458.008 429.021 417.008 430.995 444.003 452.004 480.989 524.98 517.008 473.024 423.027 434.995 469.985 492.994 512.995 538.99 554.99 575.983 587.985 595.986 606.986 618.989 627.993 644.991 670.986 702.977 715.983 715.99 741.978 758.981 764.986 767.988 769.99 762.997 757 759.994 757.996 759.997 778.989 779.993 766.001 760.999 765.995 790.987 834.978 861.986 841.011 808.022 785.018 772.013 764.014 765.011 771.008 803.989 829.992 814.015 805.01 789.012 767.014 742.015 732.008 752.993 788.988 817.994 838.993 833.998 798.016 774.02 795.002 814.003 823.01 825.013 843.003 851.01 866.009 896.997 923.997 921.01 906.014 885.018 871.011 832.019 794.023 792.012 808.004 826.999 814.009 785.019 780.01 793.003 800.006 816.998 821.003 808.014 806.009 800.012 783.016 777.009 773.008 775.004 790.997 776.011 776.002 788.992 802.989 833.979 840.991 870.979 899.975 920.979 937.984 936.991 917.003 898.001 883.003 890.994 897.994 901.997 917.992 932.993 945.995 964.991 968.997 986.988 1010.98 1017.987 1007.998 1006.999 1020.991 1015.996 1013.994 1028.986 1034.992 1019.005 1006.003 1024.989 1033.991 1034.994 1035.996 1037.997 1039.999 1047.996 1055.994 1056 1058 1052.007 1052.002 1055.002 1062.998 1076.988 1070.995 1072.993 1063.996 1051.997 1035.998 1025.994 1008.999 1000.994 987.998 997.989 1012.989 1011.997 996.003 1008.989 998.999 987.004 994.999 1012.992 1034.986 1044.996 1066.994 1087.996 1087.005 1078.01 1077.006 1083.004 1090.006 1105.999 1121.995 1116.003 1114.998 1103.002 1099.001 1117.992 1131.992 1128.006 1127.009 1123.007 1114.011 1118.004 1113.006 1115.003 1117.003 1136.994 1161.992 1179.994 1190.998 1208.995 1221.997 1210.009 1204.004 1184.009 1157.013 1137.01 1125.008 1113.005 1099.003 1079.004 1056.006 1046.998 1026.003 991.01 956.011 924.014 911.013 925.995 926.994 893.01 853.017 802.026 751.031 705.028 635.035 582.027 539.021 530.996 544.979 549.979 536.987
482.999 485.999 487.999 489.999 492.998 497.998 498.998 497.997 497.999 470.014 438.018 436.004 439 406.016 389.008 391.997 390.999 390 401.994 408.994 406.999 409.997 404.002 393.004 382.004 380 382 381 376.002 368.004 361.004 355.005 355.009 365.007 375.004 386.003 409.993 421.996 421.001 418.002 416.001 414.001 411.002 411.001 410 407.001 404.001 401.001 401 394.003 377.009 373.002 386.992 398.993 405.997 406.001 396.008 375.015 366.009 382.998 381.004 358.013 349.012 345.008 335.009 356.994 389.987 394.998 391.002 380.004 347.018 338.012 336.01 333.007 318.009 314.005 317.007 318.008 323.001 328.995 308.009 286.012 284.002 282.005 284.005 303.997 330.992 345.994 344.002 343.001 342.001 340.003 341 341 339.001 330.003 307.009 275.011 257.005 268.987 267.993 249.008 249.007 271.993 263.003 257.004 247.006 256.995 286.986 296.995 295.001 293 287.997 283.996 282.997 283.998 282 263.008 233.013 240.998 247.999 250 250.001 251 251.001 260.995 265.997 286.987 303.987 305.997 288.009 271.009 289.994 300 288.009 281.003 263.01 274.996 262.005 251.007 255.998 263.994 265.999 268.998 273.996 259.009 251.007 249.002 251 252.002 252.006 260.004 274.002 293.997 290.008 271.015 292.992 321.988 317 297.016 293.011 293.008 297.007 291.013 293.008 293.008 298.005 305.001 328.992 360.987 396.984 414.994 408.006 419.998 425 406.008 381.012 387.001 365.018 354.013 360.003 373.995 394.994 427.991 448.997 465.002 490.997 492.006 460.019 429.017 433.999 478.982 481.007 489.005 522.989 532.996 490.021 443.027 434.01 470.979 506.975 525.983 542.981 543.989 545.989 548.99 556.989 571.991 595.99 616.992 639.989 658.984 668.983 670.988 677.989 701.979 715.983 721.986 726.988 734.988 737.994 745.994 740.996 740.995 749.994 768.986 754.999 748 747.998 755.995 782.984 824.974 851.982 848.004 836.013 814.019 800.018 806.009 810.011 812.012 818.01 842.997 843.009 827.014 807.012 785.011 759.016 744.014 761.993 803.978 841.979 846.994 819.013 798.015 811.999 837.999 858.003 877.005 878.016 886.012 901.007 926.001 939.003 956.999 953.01 934.02 917.014 888.015 840.028 819.021 835.005 851.002 854 826.015 809.015 809.01 825.001 836.001 838.005 839.009 840.01 837.01 835.007 814.018 801.016 796.01 794.01 805.001 792.013 782.013 779.009 785.001 805.987 819.988 840.984 853.986 876.982 903.978 899.993 893.995 870.006 870.997 880.993 884.997 897.993 915.99 929.991 948.987 963.986 963.995 971.99 974.991 978.991 982.995 1002.988 1010.991 991.005 985.999 999.991 1014.987 1009.994 997 1012.986 1013.995 1013.997 1020.996 1030.997 1039.997 1044.997 1046.001 1054.997 1062 1068.001 1061.007 1067 1067.999 1056.003 1042.002 1048.988 1034.999 1021.998 1003.002 988.004 975.004 966.002 958 972.991 994.984 996.992 981.002 989.991 979.004 982.999 1004.988 1011.994 1018.997 1047.988 1081.985 1106.988 1105.999 1100.001 1097.002 1107.995 1124.993 1127.003 1129 1116.003 1105 1091.004 1097.995 1119.988 1125.998 1144.993 1157.996 1143.01 1143.003 1139.004 1127.008 1128.003 1132.003 1146 1171.995 1188 1203 1217.997 1231.994 1225.004 1211.005 1185.011 1160.016 1143.016 1136.006 1112.012 1088.008 1060.009 1040.005 1023.003 1002.007 971.015 938.016 926.008 939.997 932.004 905.012 876.016 850.013 818.015 783.014 736.02 654.04 598.029 547.027 501.028 490.007 478.002 465.996
485.995 485.999 488.998 489.997 491.997 496.995 492.996 485 492.997 475.012 452.015 447.007 443.004 413.016 393.013 386.005 385.999 388.998 398.994 398 398.998 402.997 401.999 391.006 380.006 377.002 383.997 381.002 376.003 370.002 364.003 365.005 388.998 406.999 408.005 416.999 422.999 424.999 423.001 421.001 417.001 414 413 412.999 409.002 406.002 403.001 400.002 400.999 395.003 383.008 374.006 378.997 391.992 404.994 409.998 408.003 396.01 387.011 403.996 394.009 368.019 380 369.007 353.012 370.997 394.99 396.999 392.003 377.009 361.014 369.001 372.001 354.01 326.016 328.004 347.995 352.001 337.004 321.004 307.009 294.014 289.011 296.007 305.005 325.995 346.992 349 349 347.002 346.001 346.999 343.002 342.001 338.001 326.002 304.004 265.016 247.008 241.009 240.012 249.008 276.995 282.002 259.013 261.997 254.002 252.999 281.985 292.995 296.997 288.999 270 260.998 267.99 277.989 278.997 261.007 232.012 246.995 256.996 254.002 253 252.001 253 258.997 261.998 270.994 281.991 297.988 293.001 278.008 297.993 316.991 301.004 279.008 270.005 278.998 260.008 258.001 255.002 254.002 266.993 265.001 266.003 269.003 266.003 252.01 254.003 260.003 275.998 289.995 304.992 315.993 314.002 298.014 301.007 322.995 310.014 325.998 330.007 322.015 329.006 329.009 325.014 325.014 325.01 319.011 337.994 365.986 394.983 420.985 419.001 433.996 431.998 403.01 387.012 402 396.01 385.013 380.008 380.004 405.992 448.984 471.997 500.995 521.998 516.007 480.019 444.019 440.003 483.975 509.984 520.994 535.996 533.003 498.019 468.02 458.014 451.013 471.991 491.987 498.991 501.994 505.995 515.99 529.989 561.982 595.984 622.986 635.989 628.995 620.992 627.985 646.983 660.986 673.986 678.99 687.989 703.984 719.984 735.986 719.004 719.997 742.988 747.993 729.004 735.994 740.998 751.994 765.991 795.984 827.984 855.988 866.995 851.011 844.013 850.011 860.01 863.014 867.014 874.008 877.005 855.013 819.019 791.015 776.01 772.005 765.009 790.993 825.981 833.998 823.012 820.008 833 876.984 903.994 928.999 939.007 945.008 951.007 971.999 972.008 984.003 986.011 977.01 943.02 896.031 868.027 865.017 881.006 885.005 859.017 838.019 837.013 847.008 857.005 859.006 861.008 874.004 881.006 871.012 858.013 846.015 839.011 827.012 827.005 827.006 819.011 815.012 807.015 798.012 791.01 798.999 813.994 821.999 844.987 863.983 867.991 863.995 852.004 861.996 871.996 881.998 894 906.001 919 931.994 936.996 943.994 948.994 944.999 949.995 969.988 990.984 988.992 975.001 972.998 988.988 990.992 978.003 976.001 986.996 996 1001.002 1016.995 1037.99 1044.995 1041.004 1051.996 1057.998 1071.996 1081.997 1076.005 1078.001 1067.008 1047.015 1028.013 1016.003 1008.998 993.002 979.001 977.997 969.001 958.006 945.005 962.987 970.99 967.997 961.002 971.994 976.998 985.996 995.995 1001.998 1019.992 1048.987 1082.984 1103.985 1098.995 1094.995 1099.993 1105.997 1126.988 1139.988 1131.997 1106.005 1088.003 1081.003 1091.995 1109.993 1127.995 1148.994 1164.991 1157.997 1154.997 1147.002 1138.008 1142.002 1149 1168.992 1197.986 1215.989 1226.992 1229.993 1230.991 1226.994 1205.005 1183.009 1179.003 1176 1149.011 1117.016 1080.02 1049.018 1026.014 1008.014 994.011 975.01 945.017 937.01 951.995 934.01 906.018 888.009 856.012 821.014 780.019 733.022 670.031 614.031 566.028 533.02 498.026 464.028 430.027
478.99 483.994 485.994 479.999 481.996 485.994 471.004 472.001 493.992 489.005 472.013 466.005 453.005 425.014 411.008 392.009 383.005 385.998 391.996 394.997 394 396.998 397.999 394.001 383.007 381.003 383 383.001 379.002 368.004 365.002 383.995 419.987 432.995 430.002 429.001 428 426.001 424 419.998 413.998 408.996 409.995 409 409 407.001 402.002 400.999 399.999 397.001 393.002 383.009 374.008 384.993 402.99 411.997 416.001 413.004 414.002 417 411.005 398.01 399.002 376.016 374.007 389.996 397.998 397.001 394.003 387.005 387.002 386.002 382.002 361.012 340.012 346.002 363.996 364 329.016 308.013 317.003 326.004 322.011 335.001 339.003 343.002 349.998 352 350.002 350.999 348.998 344.997 343.998 344 336.003 312.01 284.012 261.008 249.008 265.003 283.001 295.995 303.997 297.004 272.015 256.01 249.003 247.999 271.99 291.99 291.998 271.004 240.012 237.002 239.997 253.988 269.987 258.003 231.012 250.989 258.998 256 251.003 253.999 253.001 257.997 260.999 262 264.998 279.989 289.992 283.002 303.987 314.991 291.01 274.009 275 286.995 259.012 259.999 256.003 260.998 262.998 263.999 279.99 285.994 273.008 266.012 268.008 282.995 293.996 294.005 301 307.994 317.995 325.001 331.003 340.002 342.005 345.005 362.995 366.003 363.009 364.005 372.001 377.003 365.01 352.012 346.008 358.994 378.993 405.99 419.997 441.989 422.006 393.016 405.001 425.996 426.007 416.012 402.013 394.009 416.991 457.983 497.985 530.989 549.995 534.01 492.023 458.02 444.009 461.989 492.979 516.986 546.985 541.008 512.022 493.016 493.007 489.009 474.013 475.005 476.004 484.004 492.007 494.008 509.994 547.977 591.972 615.981 615.989 596.998 579.005 581.998 611.979 629.987 642.99 647.993 659.988 668.991 685.986 707.983 705.996 710.998 734.987 728.998 713.006 725.995 740.993 746.998 754.998 784.986 818.982 855.977 866.986 866.991 883.988 901.993 915.999 921.003 926 916.002 902.003 867.021 833.025 803.021 790.011 783.007 786.002 806.994 811.001 838.988 849.997 847.009 856.005 888.991 926.984 964.982 981.99 983.998 988.997 1002.994 1002.007 1015.003 1029.998 1001.017 962.028 937.026 926.018 925.012 929.008 910.017 879.025 875.016 884.01 894.006 893.008 887.012 894.006 911.001 917.003 900.014 885.015 882.01 869.012 851.015 848.009 849.008 849.01 854.008 851.008 828.018 816.013 810.006 816.997 830.993 835 830.004 838.997 840.001 848.999 863.998 873.002 890.997 912.994 930.998 939.003 931.012 929.011 932.01 935.009 934.007 938.001 956.988 963.991 957 956.999 961.998 970.993 965.005 966.006 977.001 990.001 1009.995 1015.997 1025.993 1034.993 1036.999 1048.996 1056.995 1059.998 1078.989 1088.994 1084.005 1086.003 1080.009 1072.005 1045.011 1009.016 991.008 974.008 961.005 962.996 958.999 961.996 944.005 943.997 945.999 950.003 957.001 966.999 976.999 984.997 993.997 1005.998 1019 1047.99 1078.983 1080.993 1070 1068.996 1082.99 1102.984 1115.985 1115.99 1106.994 1080.007 1071.004 1082 1093.002 1111.996 1137.989 1160.984 1155.996 1134.004 1139.992 1140.996 1153.992 1156.995 1160.994 1172.988 1193.982 1202.987 1214.986 1207.994 1199.996 1198.994 1188.002 1180.999 1184.991 1173 1146.011 1123.015 1096.018 1068.017 1042.017 1031.008 1014.008 981.015 959.016 960.007 956.006 943.01 928.008 894.014 848.022 816.019 783.022 738.028 684.033 640.027 593.031 555.032 540.023 514.025 476.029
463.997 468.995 467.998 465.002 469.996 467.998 461.001 478.992 499.99 500.999 492.004 474.009 449.012 431.009 417.008 396.012 389.004 384.002 386.998 389.997 390.999 392.998 393.999 392 390.001 390 388.001 386 379.001 366.005 366.003 394.993 429.987 435.998 432.002 432.999 428.002 426.001 420 406 395.997 384 392.994 405.993 407.998 406.001 402.001 394.999 395.995 396.997 395 399 389.009 378.007 394.989 414.989 425.997 424.004 422.004 423.001 421.002 415.004 408.005 400.007 398.003 402.999 402.001 400.001 400.001 396.003 395.001 393.001 384.006 371.01 350.018 364.998 377.995 365.007 333.018 324.009 343.997 357.997 359.002 359.001 358.996 358.997 354.998 356.995 354.001 350.001 337 326.998 332.992 344.992 335.004 312.009 282.011 253.012 258.003 301.984 314.99 299.003 303.994 300.001 286.006 266.007 248.006 244.003 273.985 287.992 283.998 250.012 235.008 240.001 235.007 231.004 245.99 248.995 230.009 241.995 263.99 251.005 253.999 256 254.002 255 260.998 264.997 263 263.998 275.992 278.997 289.991 296.993 290.001 279.005 276.999 286.991 258.011 258.001 259.002 260.004 258.002 262.997 268.996 272.998 282.992 298.989 299.997 289.005 297.002 311.999 313.006 298.013 314.993 340.988 352.996 360.997 365 369.999 374.002 382.001 391.002 384.012 391.006 396.004 385.008 375.008 368.006 359.01 385.994 412.993 429.997 434.997 410.01 405.004 426.993 443.995 451 447.005 429.013 414.012 422 461.983 506.979 544.983 563.993 547.012 511.02 476.018 456.014 450.008 463.995 504.979 539.983 560.995 547.013 524.017 520.008 516.007 498.013 496.005 494.007 512 532 527.015 513.016 522.996 559.976 584.978 571.999 557.009 569.001 580.001 583.002 611.986 627.99 630.997 635.995 649.989 659.991 679.988 687.995 710.986 723.989 710.002 710.001 726.997 740.998 748.998 759.993 780.989 805.98 829.978 832.989 833.992 865.98 906.975 935.975 939.99 934.996 908.004 888.997 886.993 871.011 833.026 810.018 798.013 799.004 818.988 822.998 837.99 857.988 876.992 891.995 907.995 929.993 957.987 971.988 978.994 985.994 1003.989 1027.987 1048.989 1047 1018.019 1005.016 994.017 975.02 969.013 968.007 945.018 923.02 930.006 939.005 932.009 922.013 924.01 928.008 944 939.009 926.013 916.015 914.01 895.016 879.016 879.01 883.008 886.009 892.004 875.013 859.014 847.012 823.018 816.005 828.993 839.995 837.009 841.008 846.007 861.001 881.998 894.001 910.997 927.999 954.996 963.003 963.008 969.007 977.008 974.012 958.016 947.011 943.006 941.007 946.999 951.998 962.993 960.002 972.998 990.997 1000.001 1013.998 1022.995 1015.999 1015.996 1023.994 1035.991 1051.987 1052.996 1055.997 1068.994 1080.994 1093.99 1099.996 1102.998 1079.008 1042.016 1012.015 990.016 976.013 960.012 952.008 948.004 950.998 933.007 931.998 944.994 966.99 971 979.999 990.995 987.003 996.999 1019.99 1038.988 1059.981 1066.988 1058.999 1051.003 1051.995 1068.985 1074.99 1080.987 1078.99 1067.998 1060.004 1070.001 1100.99 1117.992 1129.99 1139.986 1138.991 1130.995 1112.002 1119.991 1127.994 1143.986 1142.995 1142.994 1145.992 1161.986 1166.989 1182.983 1172.999 1171.996 1175.992 1176.993 1167.002 1158 1151.996 1144.998 1141.997 1118.013 1088.02 1065.014 1045.01 1017.012 985.018 982.011 989.005 972.013 960.01 933.013 891.022 855.022 834.018 813.016 769.027 721.028 670.032 632.03 614.023 603.019 568.028 523.032
458 459 459.999 467.994 463.999 457.001 454.999 479.986 497.99 499.999 494.002 479.005 455.012 435.015 425.012 405.017 392.007 384.005 385 384 386.998 389.998 389.999 387.999 388.997 389.998 389.999 381.003 372.002 363.004 378.992 414.982 436.989 437 434.001 432 429.002 425.003 411.008 384.016 368.009 364.999 383.987 400.989 404.997 404.999 401.001 379.013 377.998 387.991 391.999 403.997 408.001 388.013 383.003 406.988 431.99 436.002 433.003 427.003 424 419.002 417 412.002 407.002 406.999 403.001 402.001 402 399.002 396.002 393.002 392.001 387.003 383.003 382.001 380.002 371.006 347.016 344.008 363.991 367.996 366.999 361.001 342.005 346.991 338.996 340.992 350.992 345.999 316.013 303.003 312.993 334.987 332.996 307.007 275.009 252.01 276.996 315.986 297.01 283.003 289.992 297.992 286.002 259.009 241.009 249.998 267.991 280.993 271 238.013 240.001 253.997 253.003 239.007 231.005 233 231.002 241.001 263.994 249.011 254.998 260.998 259.002 258.001 261.997 261.999 259.002 259 264.997 270.996 274.998 280.997 281.998 278 270.005 270.001 253.008 260.001 269.003 276.005 263.013 261.003 262.999 271.997 269.002 284.99 289.997 291.003 316.99 334.992 336.002 321.014 318.005 338.99 355.989 362.995 370.995 373.998 386.996 400.001 415.002 418.009 426.007 420.01 398.016 390.011 380.012 382.007 408.996 431.997 447.995 430.009 408.015 413.001 435.991 452.993 462.001 461.007 448.013 434.014 434.003 462.986 499.982 542.979 569.987 565.002 528.017 488.023 475.014 470.011 469.005 492.99 533.983 574.984 574.006 552.018 545.011 535.01 516.017 511.014 517.008 541.994 564.992 574.997 549.016 525.014 530.999 540.998 548.003 565.003 591.003 603.008 597.014 608.001 618 624.001 625.003 629.999 642.992 665.986 683.987 696.987 702.99 696.002 711.994 741.984 756.988 753.995 752.998 774.989 772.996 783.986 796.986 804.992 841.978 878.973 887.985 909.981 912.991 877.01 844.005 856.983 885.977 871.009 839.025 829.011 815.011 807.007 821.989 822.998 843.99 877.982 896.991 913.997 939.991 952.991 948.998 967.987 973.992 990.987 1016.982 1039.984 1044.996 1043.005 1044.001 1040.001 1018.013 1008.011 992.011 976.011 961.011 965.004 972.002 955.015 954.009 964.005 967.009 971.009 965.013 955.016 957.008 947.01 923.017 912.014 917.007 922.007 927.006 918.01 898.012 885.01 871.012 852.013 825.015 824.004 840.994 866.991 878.002 880.008 891.004 909.997 917.003 929.002 952.996 982.993 988.007 993.006 1005.001 1021.998 1015.008 993.013 970.014 959.009 963.003 954.007 953.003 953.003 960.997 985.985 1007.985 1018.991 1027.989 1017.002 1000.003 1001.995 1015.988 1019.991 1029.989 1037.992 1048.995 1066.991 1077.991 1077.998 1094.99 1101.995 1070.012 1042.011 1021.011 1016.009 1002.013 978.015 971.005 955.011 949.009 929.016 923.003 941.989 964.987 975.992 990.992 991.994 991.995 1009.988 1019.991 1023.993 1022.994 1031.988 1041.99 1047.992 1033.004 1038.989 1045.986 1041.991 1035.995 1040.996 1061.993 1091.988 1114.986 1116.992 1111.994 1101.997 1101.992 1099.993 1089.001 1098.99 1117.984 1118.994 1120.995 1120.996 1119.998 1133.988 1133.993 1144.989 1153.991 1156.993 1150.995 1149.993 1156.989 1143.001 1127.001 1123.995 1126.991 1126.995 1113.005 1081.017 1049.017 1018.018 1002.013 1018.999 1018.005 994.014 977.009 936.02 906.018 879.021 867.014 839.018 800.021 747.029 706.029 682.023 672.019 659.019 616.034 572.035
